# .PCD v0.7 - Point Cloud Data file format
VERSION 0.7
FIELDS x y z rgb
SIZE 4 4 4 4
TYPE F F F F
COUNT 1 1 1 1
WIDTH 1058
HEIGHT 1
VIEWPOINT 0 0 0 0 1 0 0
POINTS 1058
DATA ascii
-0.35794193 -1.1503325 2.8690002 2.9434344e-39
-0.35247716 -1.1503325 2.8690002 3.6784659e-39
-0.34991524 -1.1599553 2.8930001 3.5869793e-39
-0.34154764 -1.1503325 2.8690002 3.5876926e-39
-0.33608288 -1.1503325 2.8690002 3.8614026e-39
-0.33338383 -1.1599553 2.8930001 4.1376378e-39
-0.32787335 -1.1599553 2.8930001 3.679189e-39
-0.31968859 -1.1503325 2.8690002 3.3136267e-39
-0.31422383 -1.1503325 2.8690002 3.219266e-39
-0.30875906 -1.1503325 2.8690002 3.1270774e-39
-0.3032943 -1.1503325 2.8690002 3.7695741e-39
-0.29782954 -1.1503325 2.8690002 4.4142121e-39
-0.29236478 -1.1503325 2.8690002 3.7710021e-39
-0.28690001 -1.1503325 2.8690002 3.1277949e-39
-0.28143525 -1.1503325 2.8690002 3.4036601e-39
-0.27597049 -1.1503325 2.8690002 3.587687e-39
-0.27050573 -1.1503325 2.8690002 3.3121777e-39
-0.26504096 -1.1503325 2.8690002 3.1285109e-39
-0.2595762 -1.1503325 2.8690002 3.0363209e-39
-0.25411144 -1.1503325 2.8690002 2.9441239e-39
-0.24656665 -1.1407095 2.845 3.0352405e-39
-0.24114762 -1.1407095 2.845 3.2217856e-39
-0.23572856 -1.1407095 2.845 3.1288795e-39
-0.23030952 -1.1407095 2.845 3.1267467e-39
-0.22489049 -1.1407095 2.845 3.5859438e-39
-0.21769714 -1.1314876 2.822 3.9532606e-39
-0.21232191 -1.1314876 2.822 4.045431e-39
-0.20863333 -1.1407095 2.845 4.0457897e-39
-0.20321429 -1.1407095 2.845 4.0457911e-39
-0.19946381 -1.1503325 2.8690002 3.9539668e-39
-0.19399907 -1.1503325 2.8690002 3.402965e-39
-0.18853429 -1.1503325 2.8690002 2.9437792e-39
-0.18306953 -1.1503325 2.8690002 3.3111127e-39
-0.17611904 -1.1407095 2.845 3.7684979e-39
-0.17214 -1.1503325 2.8690002 3.7684993e-39
-0.16667525 -1.1503325 2.8690002 3.8606866e-39
-0.16121049 -1.1503325 2.8690002 3.6770086e-39
-0.15194571 -1.1222657 2.799 3.4929788e-39
-0.14781906 -1.1314876 2.822 3.6798798e-39
-0.14481619 -1.1503325 2.8690002 3.7702804e-39
-0.13935144 -1.1503325 2.8690002 3.9543101e-39
-0.13388668 -1.1503325 2.8690002 4.1383427e-39
-0.1284219 -1.1503325 2.8690002 4.04651e-39
-0.12295716 -1.1503325 2.8690002 3.9550318e-39
-0.11749239 -1.1503325 2.8690002 4.1394202e-39
-0.11202762 -1.1503325 2.8690002 4.322371e-39
-0.10656286 -1.1503325 2.8690002 4.1379797e-39
-0.1010981 -1.1503325 2.8690002 3.9535969e-39
-0.095633343 -1.1503325 2.8690002 3.952885e-39
-0.089414284 -1.1407095 2.845 3.9525291e-39
-0.083995238 -1.1407095 2.845 3.769221e-39
-0.078576185 -1.1407095 2.845 3.5859242e-39
-0.072565712 -1.1314876 2.822 3.8621635e-39
-0.067190476 -1.1314876 2.822 4.0483344e-39
-0.061815236 -1.1314876 2.822 4.0468883e-39
-0.056439999 -1.1314876 2.822 3.9546871e-39
-0.051064763 -1.1314876 2.822 3.6784561e-39
-0.045689523 -1.1314876 2.822 3.4029426e-39
-0.040314287 -1.1314876 2.822 3.402937e-39
-0.034939047 -1.1314876 2.822 3.4033028e-39
-0.029563809 -1.1314876 2.822 3.7710105e-39
-0.024188573 -1.1314876 2.822 4.2337697e-39
-0.018813333 -1.1314876 2.822 4.0468659e-39
-0.013328571 -1.1222657 2.799 3.8624816e-39
-0.0079971431 -1.1222657 2.799 3.7710105e-39
-0.0026657144 -1.1222657 2.799 3.7728167e-39
0.0026657144 -1.1222657 2.799 3.4966068e-39
0.0079971431 -1.1222657 2.799 3.2210863e-39
0.01322381 -1.1134448 2.7770002 3.4969375e-39
0.018513335 -1.1134448 2.7770002 3.7749551e-39
0.023802858 -1.1134448 2.7770002 3.6809672e-39
0.029092383 -1.1134448 2.7770002 3.6806085e-39
0.034381907 -1.1134448 2.7770002 4.1405035e-39
0.039671432 -1.1134448 2.7770002 4.6003928e-39
0.044960957 -1.1134448 2.7770002 4.1419286e-39
0.050250478 -1.1134448 2.7770002 3.6834756e-39
0.055540003 -1.1134448 2.7770002 3.4083348e-39
0.061311428 -1.1222657 2.799 3.2250226e-39
0.066119052 -1.1134448 2.7770002 4.2344955e-39
0.071408577 -1.1134448 2.7770002 5.150331e-39
0.076698102 -1.1134448 2.7770002 4.8766097e-39
0.081987627 -1.1134448 2.7770002 4.510016e-39
0.087968573 -1.1222657 2.799 4.6018838e-39
0.0933 -1.1222657 2.799 4.7855394e-39
0.098631434 -1.1222657 2.799 4.9670439e-39
0.10396286 -1.1222657 2.799 5.1503478e-39
0.10929429 -1.1222657 2.799 4.6918794e-39
0.11462571 -1.1222657 2.799 4.2334137e-39
0.11995714 -1.1222657 2.799 4.4177966e-39
0.12528856 -1.1222657 2.799 4.6940304e-39
0.13062 -1.1222657 2.799 4.6022061e-39
0.13488287 -1.1134448 2.7770002 4.5107223e-39
0.14128286 -1.1222657 2.799 4.2352088e-39
0.14546192 -1.1134448 2.7770002 3.9600568e-39
0.15075144 -1.1134448 2.7770002 4.4188714e-39
0.15604097 -1.1134448 2.7770002 4.969534e-39
0.16133049 -1.1134448 2.7770002 4.0519064e-39
0.16662002 -1.1134448 2.7770002 3.2264617e-39
0.17190953 -1.1134448 2.7770002 4.3274114e-39
0.17719905 -1.1134448 2.7770002 5.5205498e-39
0.18248858 -1.1134448 2.7770002 4.9702501e-39
0.1877781 -1.1134448 2.7770002 4.5121474e-39
0.19306763 -1.1134448 2.7770002 4.9709662e-39
0.19835715 -1.1134448 2.7770002 5.4297793e-39
0.20364667 -1.1134448 2.7770002 5.0635093e-39
0.2089362 -1.1134448 2.7770002 4.786226e-39
0.21422572 -1.1134448 2.7770002 5.0610318e-39
0.21951525 -1.1134448 2.7770002 5.4276563e-39
0.22480477 -1.1134448 2.7770002 5.6113287e-39
0.22818859 -1.1042229 2.7540002 5.7949955e-39
0.23538382 -1.1134448 2.7770002 5.4287255e-39
0.24067335 -1.1134448 2.7770002 5.1564462e-39
0.24596287 -1.1134448 2.7770002 4.789463e-39
0.25125241 -1.1134448 2.7770002 4.4228427e-39
0.25654191 -1.1134448 2.7770002 4.6058018e-39
0.26183143 -1.1134448 2.7770002 4.8809412e-39
0.26712096 -1.1134448 2.7770002 4.970976e-39
0.27241048 -1.1134448 2.7770002 5.1532022e-39
0.27770001 -1.1134448 2.7770002 5.3365047e-39
0.28298953 -1.1134448 2.7770002 5.6120224e-39
0.28827906 -1.1134448 2.7770002 5.6116763e-39
0.29356858 -1.1134448 2.7770002 5.6113273e-39
0.29885811 -1.1134448 2.7770002 5.4280263e-39
0.30414763 -1.1134448 2.7770002 5.3365439e-39
0.31188858 -1.1222657 2.799 5.4294514e-39
0.31472668 -1.1134448 2.7770002 5.5223659e-39
0.32001621 -1.1134448 2.7770002 5.3379803e-39
0.32530573 -1.1134448 2.7770002 5.245779e-39
0.33059525 -1.1134448 2.7770002 5.7971451e-39
0.33588478 -1.1134448 2.7770002 6.3488798e-39
0.3383486 -1.1042229 2.7540002 5.7985899e-39
0.34359431 -1.1042229 2.7540002 5.2497223e-39
0.34884 -1.1042229 2.7540002 5.2482817e-39
0.35408574 -1.1042229 2.7540002 5.2472055e-39
0.35933146 -1.1042229 2.7540002 5.4319541e-39
0.36457717 -1.1042229 2.7540002 5.6166887e-39
0.36982289 -1.1042229 2.7540002 5.4326478e-39
0.37506858 -1.1042229 2.7540002 5.3404592e-39
0.3834905 -1.1134448 2.7770002 5.2475531e-39
0.38878003 -1.1134448 2.7770002 5.1549987e-39
0.39406955 -1.1134448 2.7770002 5.3397445e-39
0.39935908 -1.1134448 2.7770002 5.5248462e-39
0.4046486 -1.1134448 2.7770002 5.9829447e-39
0.40993813 -1.1134448 2.7770002 6.3495818e-39
0.41522765 -1.1134448 2.7770002 5.7071047e-39
0.42051718 -1.1134448 2.7770002 5.0649667e-39
0.42580667 -1.1134448 2.7770002 5.6148964e-39
0.43109623 -1.1134448 2.7770002 6.1651976e-39
0.43638572 -1.1134448 2.7770002 5.7063858e-39
0.44167528 -1.1134448 2.7770002 5.2479286e-39
0.44696477 -1.1134448 2.7770002 5.5230792e-39
0.44850859 -1.1042229 2.7540002 5.7986011e-39
0.45754382 -1.1134448 2.7770002 5.5223925e-39
0.45900002 -1.1042229 2.7540002 5.2461532e-39
0.46424574 -1.1042229 2.7540002 5.1535862e-39
0.46949145 -1.1042229 2.7540002 5.0638989e-39
0.47473717 -1.1042229 2.7540002 5.4319555e-39
0.47998288 -1.1042229 2.7540002 5.8000094e-39
0.4852286 -1.1042229 2.7540002 5.7081697e-39
0.49047431 -1.1042229 2.7540002 5.6166929e-39
0.49572003 -1.1042229 2.7540002 5.6145405e-39
0.50096577 -1.1042229 2.7540002 5.7056614e-39
0.5104391 -1.1134448 2.7770002 5.4305164e-39
0.51145715 -1.1042229 2.7540002 5.1553742e-39
0.52101815 -1.1134448 2.7770002 5.3394096e-39
0.52630764 -1.1134448 2.7770002 5.6167055e-39
0.5315972 -1.1134448 2.7770002 5.2490006e-39
0.53244001 -1.1042229 2.7540002 4.8812985e-39
0.54217625 -1.1134448 2.7770002 5.247923e-39
0.5429315 -1.1042229 2.7540002 5.6181405e-39
0.54817718 -1.1042229 2.7540002 5.1560987e-39
0.55342293 -1.1042229 2.7540002 4.7898371e-39
0.55866861 -1.1042229 2.7540002 4.7891239e-39
0.5596143 -1.0958029 2.733 4.8802447e-39
0.56482005 -1.0958029 2.733 4.7884134e-39
0.57002574 -1.0958029 2.733 4.7884078e-39
0.57523143 -1.0958029 2.733 4.8805964e-39
0.58043712 -1.0958029 2.733 4.9727921e-39
0.58564281 -1.0958029 2.733 5.1561057e-39
0.59084857 -1.0958029 2.733 5.3397767e-39
0.60063428 -1.1042229 2.7540002 5.2479412e-39
0.60588008 -1.1042229 2.7540002 5.2454371e-39
0.6064657 -1.0958029 2.733 5.5213093e-39
0.61167145 -1.0958029 2.733 5.7971886e-39
0.61687714 -1.0958029 2.733 5.5220548e-39
0.62208289 -1.0958029 2.733 5.2468846e-39
0.62728858 -1.0958029 2.733 5.154668e-39
0.63249427 -1.0958029 2.733 5.1546666e-39
0.63770002 -1.0958029 2.733 5.3383362e-39
0.64290571 -1.0958029 2.733 5.5223799e-39
0.64811146 -1.0958029 2.733 5.7975431e-39
0.65331715 -1.0958029 2.733 6.0726796e-39
0.6585229 -1.0958029 2.733 5.6134923e-39
0.66372859 -1.0958029 2.733 5.1543079e-39
0.66893429 -1.0958029 2.733 4.7866015e-39
0.67413998 -1.0958029 2.733 4.5107363e-39
0.67934567 -1.0958029 2.733 4.9724263e-39
0.68455142 -1.0958029 2.733 5.4341233e-39
0.68975711 -1.0958029 2.733 5.0660737e-39
0.69496286 -1.0958029 2.733 4.7884022e-39
0.70016855 -1.0958029 2.733 4.6047186e-39
0.7053743 -1.0958029 2.733 4.5128761e-39
0.71057999 -1.0958029 2.733 5.0638835e-39
0.71578574 -1.0958029 2.733 5.7088955e-39
0.72099143 -1.0958029 2.733 5.1557414e-39
0.72619712 -1.0958029 2.733 4.6980157e-39
0.73140287 -1.0958029 2.733 4.1473782e-39
0.73660856 -1.0958029 2.733 3.5052262e-39
0.74181432 -1.0958029 2.733 4.0558608e-39
0.74100673 -1.0869819 2.7110002 4.6068682e-39
0.74617052 -1.0869819 2.7110002 4.5150285e-39
0.75743145 -1.0958029 2.733 4.4235643e-39
0.76263714 -1.0958029 2.733 4.5136188e-39
0.76166195 -1.0869819 2.7110002 4.6979974e-39
0.77304858 -1.0958029 2.733 4.4206889e-39
0.77825427 -1.0958029 2.733 4.2370207e-39
0.78345996 -1.0958029 2.733 4.3285003e-39
0.78866571 -1.0958029 2.733 4.5121951e-39
0.7938714 -1.0958029 2.733 4.9706789e-39
0.79907715 -1.0958029 2.733 5.4291207e-39
0.80428284 -1.0958029 2.733 5.1528799e-39
0.81570864 -1.1042229 2.7540002 4.8770077e-39
0.81469429 -1.0958029 2.733 5.0610318e-39
0.81990004 -1.0958029 2.733 5.3372712e-39
0.82510573 -1.0958029 2.733 4.9706635e-39
0.83031142 -1.0958029 2.733 4.6040264e-39
0.83551717 -1.0958029 2.733 3.8693312e-39
0.84072286 -1.0958029 2.733 3.134643e-39
0.84592861 -1.0958029 2.733 3.5941764e-39
0.84428293 -1.0869819 2.7110002 4.1455705e-39
0.84944671 -1.0869819 2.7110002 4.6973248e-39
0.8546105 -1.0869819 2.7110002 5.3412313e-39
0.85977435 -1.0869819 2.7110002 5.0606843e-39
0.86493814 -1.0869819 2.7110002 4.8780741e-39
0.87010193 -1.0869819 2.7110002 4.6025536e-39
0.87526578 -1.0869819 2.7110002 4.4192455e-39
0.88757426 -1.0958029 2.733 4.969904e-39
0.89278001 -1.0958029 2.733 5.4291025e-39
0.8907572 -1.0869819 2.7110002 5.0596291e-39
0.89592099 -1.0869819 2.7110002 4.6011593e-39
0.90108484 -1.0869819 2.7110002 4.6000747e-39
0.90624863 -1.0869819 2.7110002 4.6011537e-39
0.91141248 -1.0869819 2.7110002 4.9688572e-39
0.90947622 -1.0785619 2.6900001 5.428378e-39
0.91460001 -1.0785619 2.6900001 5.0595871e-39
0.91972381 -1.0785619 2.6900001 4.7876693e-39
0.92484766 -1.0785619 2.6900001 4.512523e-39
0.92997146 -1.0785619 2.6900001 4.2377452e-39
0.93509525 -1.0785619 2.6900001 4.4207099e-39
0.9402191 -1.0785619 2.6900001 4.6951332e-39
0.9453429 -1.0785619 2.6900001 4.1426783e-39
0.95046669 -1.0785619 2.6900001 3.6824204e-39
0.95559049 -1.0785619 2.6900001 3.8668046e-39
0.95321435 -1.0701419 2.6690001 4.0515518e-39
0.96583807 -1.0785619 2.6900001 4.14303e-39
0.97096193 -1.0785619 2.6900001 4.3267192e-39
0.97608572 -1.0785619 2.6900001 3.958678e-39
0.97354954 -1.0701419 2.6690001 3.6827889e-39
0.98633337 -1.0785619 2.6900001 3.7753195e-39
0.99145716 -1.0785619 2.6900001 3.7767558e-39
0.99658096 -1.0785619 2.6900001 4.049754e-39
0.99388486 -1.0701419 2.6690001 4.3245416e-39
1.0068285 -1.0785619 2.6900001 4.0501113e-39
1.0119524 -1.0785619 2.6900001 3.8664459e-39
1.0091362 -1.0701419 2.6690001 4.1408832e-39
1.01422 -1.0701419 2.6690001 4.5075091e-39
1.0193038 -1.0701419 2.6690001 4.3216871e-39
1.0243877 -1.0701419 2.6690001 4.1362169e-39
1.0294715 -1.0701419 2.6690001 3.5884283e-39
1.0345553 -1.0701419 2.6690001 3.1278131e-39
1.0396391 -1.0701419 2.6690001 3.3118414e-39
1.0447229 -1.0701419 2.6690001 3.587701e-39
1.0498067 -1.0701419 2.6690001 3.8657144e-39
1.0548905 -1.0701419 2.6690001 4.0501029e-39
1.0599743 -1.0701419 2.6690001 3.9571926e-39
1.0650581 -1.0701419 2.6690001 3.8671494e-39
1.0701419 -1.0701419 2.6690001 3.683477e-39
1.0752257 -1.0701419 2.6690001 3.5894975e-39
1.0803096 -1.0701419 2.6690001 3.6809827e-39
1.0853934 -1.0701419 2.6690001 3.6802638e-39
1.0904772 -1.0701419 2.6690001 3.8639348e-39
1.095561 -1.0701419 2.6690001 4.048312e-39
1.1006448 -1.0701419 2.6690001 3.3129008e-39
1.1057286 -1.0701419 2.6690001 2.5778735e-39
1.1108124 -1.0701419 2.6690001 3.4036923e-39
1.1158962 -1.0701419 2.6690001 4.2295055e-39
1.12098 -1.0701419 2.6690001 3.4026385e-39
1.1260638 -1.0701419 2.6690001 2.6679265e-39
1.1311476 -1.0701419 2.6690001 3.3114645e-39
1.1362315 -1.0701419 2.6690001 3.8632145e-39
1.1327629 -1.0621229 2.6490002 3.7717574e-39
1.1378087 -1.0621229 2.6490002 3.6802708e-39
1.1428543 -1.0621229 2.6490002 3.1299655e-39
1.1479 -1.0621229 2.6490002 2.670788e-39
1.1529458 -1.0621229 2.6490002 3.1306829e-39
1.1579915 -1.0621229 2.6490002 3.6788148e-39
1.1630372 -1.0621229 2.6490002 3.5873283e-39
1.1592638 -1.0541039 2.6290002 3.4958669e-39
1.1642715 -1.0541039 2.6290002 3.0377825e-39
1.1781744 -1.0621229 2.6490002 2.5793224e-39
1.18322 -1.0621229 2.6490002 3.0374237e-39
1.1792943 -1.0541039 2.6290002 3.4033308e-39
1.1933115 -1.0621229 2.6490002 3.7721077e-39
1.1893096 -1.0541039 2.6290002 4.1372889e-39
1.1943172 -1.0541039 2.6290002 3.5862689e-39
1.1993248 -1.0541039 2.6290002 3.1288837e-39
1.2043325 -1.0541039 2.6290002 3.4051076e-39
1.2093401 -1.0541039 2.6290002 3.6827637e-39
1.2143477 -1.0541039 2.6290002 2.8562414e-39
1.2193553 -1.0541039 2.6290002 2.1215603e-39
1.2243629 -1.0541039 2.6290002 2.9455714e-39
1.2293706 -1.0541039 2.6290002 3.7728111e-39
1.2343781 -1.0541039 2.6290002 2.8541003e-39
1.2393858 -1.0541039 2.6290002 2.0268605e-39
1.2443933 -1.0541039 2.6290002 2.4860366e-39
1.249401 -1.0541039 2.6290002 2.9448497e-39
1.2544087 -1.0541039 2.6290002 2.7604571e-39
1.2594162 -1.0541039 2.6290002 2.5764218e-39
1.264424 -1.0541039 2.6290002 3.2203422e-39
1.2694315 -1.0541039 2.6290002 3.8646284e-39
1.2744392 -1.0541039 2.6290002 3.1299487e-39
1.2794467 -1.0541039 2.6290002 2.3952661e-39
1.2844543 -1.0541039 2.6290002 2.3019985e-39
1.289462 -1.0541039 2.6290002 2.3020013e-39
1.3043172 -1.0621229 2.6490002 2.3020041e-39
1.3093629 -1.0621229 2.6490002 2.3020055e-39
1.3044848 -1.0541039 2.6290002 2.4842443e-39
1.3194544 -1.0621229 2.6490002 2.7586634e-39
1.3245001 -1.0621229 2.6490002 2.8508478e-39
1.3295457 -1.0621229 2.6490002 3.0348776e-39
1.3345915 -1.0621229 2.6490002 2.8515653e-39
1.3396373 -1.0621229 2.6490002 2.7600941e-39
1.3446829 -1.0621229 2.6490002 2.8512192e-39
1.3497286 -1.0621229 2.6490002 2.9437862e-39
1.3547744 -1.0621229 2.6490002 2.5768169e-39
1.35982 -1.0621229 2.6490002 2.3020125e-39
1.3648658 -1.0621229 2.6490002 2.3934738e-39
1.3699116 -1.0621229 2.6490002 2.5771448e-39
1.3749572 -1.0621229 2.6490002 2.4845919e-39
1.390422 -1.0701419 2.6690001 2.4842303e-39
1.4174658 -1.0869819 2.7110002 2.3916746e-39
1.4226296 -1.0869819 2.7110002 2.3916886e-39
1.4277934 -1.0869819 2.7110002 2.2076743e-39
1.4329572 -1.0869819 2.7110002 2.1158276e-39
1.4381211 -1.0869819 2.7110002 2.3009223e-39
1.4432849 -1.0869819 2.7110002 2.4860226e-39
1.4484487 -1.0869819 2.7110002 2.3927466e-39
1.4536124 -1.0869819 2.7110002 2.3913116e-39
-1.0316668 -0.69833338 1.7500001 5.5244987e-39
-1.0336219 -0.70192474 1.7590001 5.4326758e-39
-1.035543 -0.70551622 1.7680001 5.2493776e-39
-1.0374296 -0.70910764 1.7770001 5.1575463e-39
-1.039282 -0.71269906 1.7860001 5.3412229e-39
-1.0358801 -0.71269906 1.7860001 5.5245309e-39
-1.0324781 -0.71269906 1.7860001 5.6160035e-39
-1.0342619 -0.71629053 1.7950001 5.7078222e-39
-1.0360116 -0.71988195 1.8040001 5.9833132e-39
-1.0325754 -0.71988195 1.8040001 6.3499434e-39
-1.0405486 -0.72786289 1.8240001 6.0758788e-39
-1.0370743 -0.72786289 1.8240001 5.80108e-39
-1.0387 -0.73145431 1.8330001 5.8939819e-39
-1.0352086 -0.73145431 1.8330001 5.9858384e-39
-1.0317171 -0.73145431 1.8330001 4.885267e-39
-1.0338352 -0.73544478 1.8430001 3.7828725e-39
-1.0359153 -0.73943526 1.853 4.4253538e-39
-1.0379571 -0.74342567 1.863 5.1575294e-39
-1.0344086 -0.74342567 1.863 5.340127e-39
-1.0419267 -0.75140673 1.8830001 5.6141832e-39
-1.0383401 -0.75140673 1.8830001 6.0737054e-39
-1.0407981 -0.75579619 1.8940001 6.5328941e-39
-1.0371906 -0.75579619 1.8940001 5.7067446e-39
-1.0335829 -0.75579619 1.8940001 4.8816586e-39
-1.0354134 -0.75978667 1.904 4.7894644e-39
-1.0317867 -0.75978667 1.904 4.6969184e-39
-1.02816 -0.75978667 1.904 4.6040137e-39
-1.0245334 -0.75978667 1.904 4.5136118e-39
-1.0380647 -0.77255619 1.9360001 4.8820286e-39
-1.0402544 -0.77694577 1.9470001 5.3408389e-39
-1.0365458 -0.77694577 1.9470001 5.1568022e-39
-1.0386724 -0.78133529 1.9580001 4.9734857e-39
-1.0407572 -0.78572482 1.9690001 5.0656771e-39
-1.0370067 -0.78572482 1.9690001 5.1557302e-39
-1.0332563 -0.78572482 1.9690001 4.8780825e-39
-1.0352571 -0.79011434 1.9800001 4.6947716e-39
-1.0314858 -0.79011434 1.9800001 5.9815462e-39
-1.0339428 -0.79490292 1.9920001 7.2658026e-39
-1.0301486 -0.79490292 1.9920001 6.072653e-39
-1.0320219 -0.79929239 2.003 4.97099e-39
-1.0282067 -0.79929239 2.003 4.8780825e-39
-1.0305287 -0.80408096 2.0150001 4.8791643e-39
-1.0328048 -0.80886954 2.0270002 5.0610472e-39
-1.0289439 -0.80886954 2.0270002 5.3369055e-39
-1.0250829 -0.80886954 2.0270002 5.0617507e-39
-1.021222 -0.80886954 2.0270002 4.8788e-39
-1.0233837 -0.81365812 2.039 4.9713557e-39
-1.0255001 -0.81844676 2.0510001 5.154661e-39
-1.0215935 -0.81844676 2.0510001 4.8762776e-39
-1.0236411 -0.82323533 2.0630002 4.6944045e-39
-1.0197116 -0.82323533 2.0630002 4.7858841e-39
-1.0221829 -0.82842296 2.0760002 4.8784454e-39
-1.0182287 -0.82842296 2.0760002 4.9710068e-39
-1.0201372 -0.83321142 2.0880001 5.1543037e-39
-1.01616 -0.83321142 2.0880001 5.062094e-39
-1.0184848 -0.83839905 2.1010001 4.9699208e-39
-1.0144829 -0.83839905 2.1010001 5.0617773e-39
-1.0167334 -0.84358668 2.1140001 5.1521709e-39
-1.0189344 -0.84877431 2.1270001 5.0603298e-39
-1.0148829 -0.84877431 2.1270001 4.9702781e-39
-1.0170096 -0.85396194 2.1400001 4.969911e-39
-1.0129334 -0.85396194 2.1400001 5.0624626e-39
-1.0088571 -0.85396194 2.1400001 5.0631786e-39
-1.0108849 -0.85914958 2.1530001 5.0628213e-39
-1.0067838 -0.85914958 2.1530001 5.0628227e-39
-1.009203 -0.8647362 2.1670001 5.1546624e-39
-1.0050752 -0.8647362 2.1670001 5.2461434e-39
-1.0009476 -0.8647362 2.1670001 5.3372516e-39
-1.00326 -0.87032282 2.181 5.6120294e-39
-0.99910575 -0.87032282 2.181 5.8875583e-39
-1.0008819 -0.87551045 2.194 5.4301969e-39
-1.003063 -0.88109726 2.2080002 4.9695635e-39
-0.9988572 -0.88109726 2.2080002 5.0635317e-39
-0.99465144 -0.88109726 2.2080002 5.1542966e-39
-0.99717432 -0.88708287 2.223 4.6944059e-39
-0.99294001 -0.88708287 2.223 4.3263549e-39
-0.98870569 -0.88708287 2.223 4.6933451e-39
-0.9906714 -0.8926695 2.237 5.1514338e-39
-0.98641044 -0.8926695 2.237 5.1510625e-39
-0.9887352 -0.89865524 2.2520001 5.2422029e-39
-0.99056572 -0.90424192 2.266 5.0578369e-39
-0.99277818 -0.91022766 2.2810001 4.9663447e-39
-0.98843342 -0.91022766 2.2810001 4.4142387e-39
-0.99099153 -0.91661245 2.2970002 3.8660928e-39
-0.98661619 -0.91661245 2.2970002 4.3270611e-39
-0.98224097 -0.91661245 2.2970002 4.8777182e-39
-0.97786576 -0.91661245 2.2970002 4.9691991e-39
-0.97984755 -0.92259812 2.312 5.061043e-39
-0.97544384 -0.92259812 2.312 4.7855464e-39
-0.97104001 -0.92259812 2.312 4.5993572e-39
-0.97959715 -0.93496865 2.3430002 4.6911871e-39
-0.97513431 -0.93496865 2.3430002 4.8741378e-39
-0.97730005 -0.94135338 2.3590002 4.8766462e-39
-0.97280675 -0.94135338 2.3590002 4.967753e-39
-0.9683134 -0.94135338 2.3590002 4.9673845e-39
-0.9638201 -0.94135338 2.3590002 4.9680963e-39
-0.95932674 -0.94135338 2.3590002 4.8773328e-39
-0.96171433 -0.94813722 2.3760002 4.8766224e-39
-0.97048295 -0.9613058 2.4090002 5.0585067e-39
-0.97271055 -0.96808958 2.4260001 5.3347376e-39
-0.9748733 -0.9748733 2.4430001 5.1521499e-39
-0.97022003 -0.9748733 2.4430001 4.9684761e-39
-0.96556669 -0.9748733 2.4430001 4.7851596e-39
-0.96091336 -0.9748733 2.4430001 4.6933171e-39
-0.95626003 -0.9748733 2.4430001 4.4178036e-39
-0.95822859 -0.98165715 2.46 4.1419454e-39
-0.95354289 -0.98165715 2.46 4.2337865e-39
-0.95580006 -0.9888401 2.4780002 4.325615e-39
-0.95108008 -0.9888401 2.4780002 4.4178022e-39
-0.95323426 -0.99602282 2.4960001 4.5100146e-39
-0.95532006 -1.0032058 2.5140002 4.4185561e-39
-0.9573372 -1.0103886 2.5320001 4.3241997e-39
-0.9596619 -1.0179704 2.5510001 4.2341494e-39
-0.95480287 -1.0179704 2.5510001 4.2345012e-39
-0.94994384 -1.0179704 2.5510001 4.0515406e-39
-0.94508481 -1.0179704 2.5510001 3.8657186e-39
-0.94722867 -1.0255524 2.5700002 4.0475988e-39
-0.9423334 -1.0255524 2.5700002 4.3241885e-39
-0.93743813 -1.0255524 2.5700002 4.1412433e-39
-0.93943721 -1.0331345 2.5890002 4.049391e-39
-0.93450576 -1.0331345 2.5890002 3.9578974e-39
-0.9367553 -1.0411154 2.6090002 3.9561094e-39
-0.9389286 -1.0490962 2.6290002 4.0472344e-39
-0.93392098 -1.0490962 2.6290002 4.2309166e-39
-0.94304669 -1.0650581 2.6690001 4.1394511e-39
-0.93796295 -1.0650581 2.6690001 4.0468883e-39
-0.9402191 -1.073438 2.6900001 3.3118358e-39
-0.93509525 -1.073438 2.6900001 2.6700621e-39
-0.92997146 -1.073438 2.6900001 3.4054622e-39
-0.93206769 -1.0818181 2.7110002 4.1397846e-39
-0.9269039 -1.0818181 2.7110002 4.4152883e-39
-0.92922002 -1.0905972 2.733 4.6908004e-39
-0.92401433 -1.0905972 2.733 4.2316299e-39
-0.92586863 -1.0989772 2.7540002 3.7724496e-39
-0.92062289 -1.0989772 2.7540002 4.0479533e-39
-0.92302197 -1.1081554 2.7770002 4.3227535e-39
-0.91773242 -1.1081554 2.7770002 4.0458247e-39
-0.91244292 -1.1081554 2.7770002 3.8628572e-39
-0.91434002 -1.1169343 2.799 3.8642795e-39
-0.90900856 -1.1169343 2.799 3.8635634e-39
-0.91110289 -1.1261123 2.822 4.1390727e-39
-0.90572762 -1.1261123 2.822 4.5064105e-39
-0.90035236 -1.1261123 2.822 4.1390643e-39
-0.90227145 -1.1352905 2.845 3.862839e-39
-0.89685237 -1.1352905 2.845 3.953957e-39
-0.89143336 -1.1352905 2.845 4.1372749e-39
-0.88601428 -1.1352905 2.845 3.9536109e-39
-0.88059521 -1.1352905 2.845 3.770293e-39
-0.87517619 -1.1352905 2.845 3.5855402e-39
-0.87709433 -1.1448677 2.8690002 3.4940621e-39
-0.8716296 -1.1448677 2.8690002 3.3111071e-39
-0.8661648 -1.1448677 2.8690002 3.1270816e-39
-0.86070001 -1.1448677 2.8690002 2.3920445e-39
-0.85523528 -1.1448677 2.8690002 1.6587997e-39
-0.85687906 -1.1544447 2.8930001 3.2225184e-39
-0.85136855 -1.1544447 2.8930001 4.8744742e-39
-0.84585816 -1.1544447 2.8930001 4.3223794e-39
-0.84034765 -1.1544447 2.8930001 3.8621257e-39
-0.8348372 -1.1544447 2.8930001 3.6802498e-39
-0.83620667 -1.164022 2.9170001 3.4951396e-39
-0.83065051 -1.164022 2.9170001 3.5873297e-39
-0.82509428 -1.164022 2.9170001 3.6773827e-39
-0.81279528 -1.1544447 2.8930001 3.5862773e-39
-0.81398195 -1.164022 2.9170001 3.586985e-39
-0.80842572 -1.164022 2.9170001 3.864634e-39
-0.79626381 -1.1544447 2.8930001 4.2301894e-39
-0.79075336 -1.1544447 2.8930001 3.8614194e-39
-0.78524292 -1.1544447 2.8930001 3.5859074e-39
-0.77973241 -1.1544447 2.8930001 2.9430533e-39
-0.78064477 -1.164022 2.9170001 2.3005607e-39
-0.77508861 -1.164022 2.9170001 2.6700509e-39
-0.76953238 -1.164022 2.9170001 3.1274543e-39
-0.76397616 -1.164022 2.9170001 3.3115037e-39
-0.76492 -1.1739982 2.9420002 3.4944404e-39
-0.75931621 -1.1739982 2.9420002 3.2185584e-39
-0.75371236 -1.1739982 2.9420002 2.9430519e-39
-0.74810863 -1.1739982 2.9420002 3.0356048e-39
-0.74250484 -1.1739982 2.9420002 3.1270816e-39
-0.73063904 -1.164022 2.9170001 3.4022294e-39
-0.72508287 -1.164022 2.9170001 3.7692168e-39
-0.71952665 -1.164022 2.9170001 4.3195165e-39
-0.71397048 -1.164022 2.9170001 4.962358e-39
-0.70841432 -1.164022 2.9170001 4.3198612e-39
-0.70285815 -1.164022 2.9170001 3.7699245e-39
-0.69730186 -1.164022 2.9170001 3.7717181e-39
-0.68605435 -1.1544447 2.8930001 3.8624844e-39
-0.68618953 -1.164022 2.9170001 3.7702972e-39
-0.68063337 -1.164022 2.9170001 3.678096e-39
-0.67507714 -1.164022 2.9170001 4.1369091e-39
-0.66952097 -1.164022 2.9170001 4.5964425e-39
-0.66396481 -1.164022 2.9170001 3.7706391e-39
-0.65840858 -1.164022 2.9170001 2.9441225e-39
-0.65285236 -1.164022 2.9170001 3.0359622e-39
-0.64197052 -1.1544447 2.8930001 3.1274431e-39
-0.64174002 -1.164022 2.9170001 3.1274459e-39
-0.6309495 -1.1544447 2.8930001 3.1270872e-39
-0.62543905 -1.1544447 2.8930001 3.2178465e-39
-0.6199286 -1.1544447 2.8930001 3.3089729e-39
-0.61441815 -1.1544447 2.8930001 3.4004595e-39
-0.60890764 -1.1544447 2.8930001 3.5851955e-39
-0.59839147 -1.1448677 2.8690002 3.1260054e-39
-0.59292674 -1.1448677 2.8690002 2.7583075e-39
-0.59237623 -1.1544447 2.8930001 2.0236277e-39
-0.58686572 -1.1544447 2.8930001 1.3822226e-39
-0.58135527 -1.1544447 2.8930001 2.1197848e-39
-0.5806219 -1.164022 2.9170001 2.9444994e-39
-0.57033432 -1.1544447 2.8930001 3.2192772e-39
-0.56482381 -1.1544447 2.8930001 3.4947921e-39
-0.55931336 -1.1544447 2.8930001 4.0458135e-39
-0.55380291 -1.1544447 2.8930001 4.5964565e-39
-0.5482924 -1.1544447 2.8930001 3.9532381e-39
-0.54278189 -1.1544447 2.8930001 3.401865e-39
-0.53727144 -1.1544447 2.8930001 3.2181926e-39
-0.53176093 -1.1544447 2.8930001 3.1263767e-39
-0.52625054 -1.1544447 2.8930001 3.2203829e-39
-0.52074003 -1.1544447 2.8930001 3.310768e-39
-0.51095527 -1.1448677 2.8690002 3.1274417e-39
-0.50971907 -1.1544447 2.8930001 2.9444868e-39
-0.50002575 -1.1448677 2.8690002 3.2239379e-39
-0.49456102 -1.1448677 2.8690002 3.4951354e-39
-0.48909622 -1.1448677 2.8690002 4.2316089e-39
-0.48767716 -1.1544447 2.8930001 5.0566948e-39
-0.48216668 -1.1544447 2.8930001 4.4145638e-39
-0.47270194 -1.1448677 2.8690002 3.8631977e-39
-0.46723717 -1.1448677 2.8690002 3.6791736e-39
-0.46563524 -1.1544447 2.8930001 3.5876926e-39
-0.46012476 -1.1544447 2.8930001 3.4965718e-39
-0.45461431 -1.1544447 2.8930001 3.4954956e-39
-0.44910383 -1.1544447 2.8930001 3.3107484e-39
-0.44359335 -1.1544447 2.8930001 3.2192786e-39
-0.43808287 -1.1544447 2.8930001 3.2196444e-39
-0.42898384 -1.1448677 2.8690002 3.3125463e-39
-0.42706192 -1.1544447 2.8930001 3.4040132e-39
-0.42155144 -1.1544447 2.8930001 3.4969333e-39
-0.41258955 -1.1448677 2.8690002 3.5891345e-39
-0.40712479 -1.1448677 2.8690002 3.7702888e-39
-0.40166003 -1.1448677 2.8690002 3.4025811e-39
-0.39619526 -1.1448677 2.8690002 3.1270732e-39
-0.39399904 -1.1544447 2.8930001 3.4040146e-39
-0.38848859 -1.1544447 2.8930001 3.7695671e-39
-0.37980098 -1.1448677 2.8690002 4.2294677e-39
-0.37746763 -1.1544447 2.8930001 4.6879249e-39
-0.36887145 -1.1448677 2.8690002 3.2181954e-39
-0.36340669 -1.1448677 2.8690002 1.8410273e-39
-0.35794193 -1.1448677 2.8690002 2.6700649e-39
-0.35247716 -1.1448677 2.8690002 3.5873409e-39
-0.3470124 -1.1448677 2.8690002 3.6795309e-39
-0.34154764 -1.1448677 2.8690002 3.8621229e-39
-0.33889431 -1.1544447 2.8930001 4.228746e-39
-0.33338383 -1.1544447 2.8930001 4.6882878e-39
-0.32787335 -1.1544447 2.8930001 4.1379979e-39
-0.31968859 -1.1448677 2.8690002 3.5873353e-39
-0.31422383 -1.1448677 2.8690002 3.6795225e-39
-0.30875906 -1.1448677 2.8690002 3.7699329e-39
-0.3032943 -1.1448677 2.8690002 4.5049854e-39
-0.29782954 -1.1448677 2.8690002 5.2396638e-39
-0.29236478 -1.1448677 2.8690002 4.5049742e-39
-0.28690001 -1.1448677 2.8690002 3.8617684e-39
-0.28378952 -1.1544447 2.8930001 3.861411e-39
-0.27827907 -1.1544447 2.8930001 3.8631977e-39
-0.27050573 -1.1448677 2.8690002 3.4958501e-39
-0.26725811 -1.1544447 2.8930001 3.1285123e-39
-0.26174763 -1.1544447 2.8930001 3.1285165e-39
-0.25411144 -1.1448677 2.8690002 3.1277991e-39
-0.24864668 -1.1448677 2.8690002 3.0363237e-39
-0.24318191 -1.1448677 2.8690002 3.036681e-39
-0.23572856 -1.1352905 2.845 2.945563e-39
-0.2322524 -1.1448677 2.8690002 2.943782e-39
-0.22489049 -1.1352905 2.845 3.4948075e-39
-0.21947144 -1.1352905 2.845 4.1369217e-39
-0.21405238 -1.1352905 2.845 4.1397748e-39
-0.20863333 -1.1352905 2.845 4.1387e-39
-0.20492859 -1.1448677 2.8690002 4.1387014e-39
-0.19946381 -1.1448677 2.8690002 4.1383539e-39
-0.19399907 -1.1448677 2.8690002 3.4033238e-39
-0.18853429 -1.1448677 2.8690002 2.6682727e-39
-0.18306953 -1.1448677 2.8690002 3.0356062e-39
-0.17760478 -1.1448677 2.8690002 3.4011602e-39
-0.17214 -1.1448677 2.8690002 3.4937187e-39
-0.16667525 -1.1448677 2.8690002 3.6773799e-39
-0.16121049 -1.1448677 2.8690002 3.4937005e-39
-0.15574571 -1.1448677 2.8690002 3.3103883e-39
-0.15028097 -1.1448677 2.8690002 3.4047349e-39
-0.14481619 -1.1448677 2.8690002 3.4951467e-39
-0.13935144 -1.1448677 2.8690002 3.4947991e-39
-0.13388668 -1.1448677 2.8690002 3.5866262e-39
-0.1284219 -1.1448677 2.8690002 3.8621243e-39
-0.12295716 -1.1448677 2.8690002 4.1390643e-39
-0.11749239 -1.1448677 2.8690002 4.1401391e-39
-0.11202762 -1.1448677 2.8690002 4.1397874e-39
-0.10656286 -1.1448677 2.8690002 3.9557647e-39
-0.1010981 -1.1448677 2.8690002 3.7699357e-39
-0.095633343 -1.1448677 2.8690002 3.7713664e-39
-0.089414284 -1.1352905 2.845 3.862483e-39
-0.083995238 -1.1352905 2.845 4.2294663e-39
-0.079239048 -1.1448677 2.8690002 4.6893724e-39
-0.072565712 -1.1261123 2.822 4.3227605e-39
-0.067190476 -1.1261123 2.822 4.0468869e-39
-0.062319044 -1.1352905 2.845 4.0468799e-39
-0.056899998 -1.1352905 2.845 4.0461596e-39
-0.051480953 -1.1352905 2.845 3.8621271e-39
-0.045689523 -1.1261123 2.822 3.6780932e-39
-0.040314287 -1.1261123 2.822 4.3223724e-39
-0.034939047 -1.1261123 2.822 5.0574207e-39
-0.029804762 -1.1352905 2.845 4.5986075e-39
-0.024385713 -1.1352905 2.845 4.2312614e-39
-0.018813333 -1.1261123 2.822 4.0475862e-39
-0.013438095 -1.1261123 2.822 3.8631977e-39
-0.0080628563 -1.1261123 2.822 3.6788106e-39
-0.0026657144 -1.1169343 2.799 3.4965816e-39
0.0026657144 -1.1169343 2.799 3.5887828e-39
0.0079971431 -1.1169343 2.799 3.6806127e-39
0.01322381 -1.1081554 2.7770002 3.7728013e-39
0.01866 -1.1169343 2.799 3.8649956e-39
0.023802858 -1.1081554 2.7770002 3.6816847e-39
0.029322857 -1.1169343 2.799 3.498378e-39
0.034381907 -1.1081554 2.7770002 4.2334278e-39
0.039671432 -1.1081554 2.7770002 4.9684607e-39
0.045317143 -1.1169343 2.799 4.5099908e-39
0.05064857 -1.1169343 2.799 4.142653e-39
0.055979997 -1.1169343 2.799 4.3256108e-39
0.061311428 -1.1169343 2.799 4.5096475e-39
0.066642858 -1.1169343 2.799 5.3368914e-39
0.071974285 -1.1169343 2.799 6.2545149e-39
0.077305712 -1.1169343 2.799 5.6112951e-39
0.082637139 -1.1169343 2.799 4.9706158e-39
0.087968573 -1.1169343 2.799 4.9720676e-39
0.094066672 -1.1261123 2.822 5.0613878e-39
0.098631434 -1.1169343 2.799 5.3340188e-39
0.10396286 -1.1169343 2.799 5.7024328e-39
0.10929429 -1.1169343 2.799 5.1546442e-39
0.11462571 -1.1169343 2.799 4.6951052e-39
0.11995714 -1.1169343 2.799 4.7865805e-39
0.12528856 -1.1169343 2.799 4.8780657e-39
0.13062 -1.1169343 2.799 4.78624e-39
0.13595143 -1.1169343 2.799 4.6958324e-39
0.14128286 -1.1169343 2.799 4.6068598e-39
0.1466143 -1.1169343 2.799 4.6036312e-39
0.15194571 -1.1169343 2.799 5.153568e-39
0.15727715 -1.1169343 2.799 5.7971479e-39
0.16133049 -1.1081554 2.7770002 5.2472252e-39
0.16662002 -1.1081554 2.7770002 4.7883952e-39
0.17190953 -1.1081554 2.7770002 5.6152622e-39
0.17719905 -1.1081554 2.7770002 6.5336157e-39
0.18248858 -1.1081554 2.7770002 5.9826e-39
0.1877781 -1.1081554 2.7770002 5.5234239e-39
0.19306763 -1.1081554 2.7770002 5.8907673e-39
0.19835715 -1.1081554 2.7770002 6.3481511e-39
0.20364667 -1.1081554 2.7770002 5.9818853e-39
0.2089362 -1.1081554 2.7770002 5.7060355e-39
0.21422572 -1.1081554 2.7770002 5.7978878e-39
0.21951525 -1.1081554 2.7770002 5.9790365e-39
0.22480477 -1.1081554 2.7770002 6.8062622e-39
0.2300943 -1.1081554 2.7770002 7.6338508e-39
0.23724857 -1.1169343 2.799 6.4410586e-39
0.24067335 -1.1081554 2.7770002 5.3408319e-39
0.24596287 -1.1081554 2.7770002 4.6997813e-39
0.25125241 -1.1081554 2.7770002 4.1487823e-39
0.25654191 -1.1081554 2.7770002 4.6079752e-39
0.26183143 -1.1081554 2.7770002 5.1575393e-39
0.26712096 -1.1081554 2.7770002 5.3411976e-39
0.27241048 -1.1081554 2.7770002 5.5241526e-39
0.27770001 -1.1081554 2.7770002 6.4421502e-39
0.28298953 -1.1081554 2.7770002 7.4509015e-39
0.28827906 -1.1081554 2.7770002 6.7151385e-39
0.29356858 -1.1081554 2.7770002 5.9811875e-39
0.29885811 -1.1081554 2.7770002 5.7986081e-39
0.30414763 -1.1081554 2.7770002 5.7064054e-39
0.31188858 -1.1169343 2.799 6.1652158e-39
0.31722 -1.1169343 2.799 6.7162344e-39
0.32001621 -1.1081554 2.7770002 6.2588576e-39
0.32530573 -1.1081554 2.7770002 5.7989542e-39
0.33059525 -1.1081554 2.7770002 6.5329123e-39
0.33588478 -1.1081554 2.7770002 7.35908e-39
0.3383486 -1.0989772 2.7540002 6.6261981e-39
0.34359431 -1.0989772 2.7540002 5.8918645e-39
0.34884 -1.0989772 2.7540002 5.618502e-39
0.35408574 -1.0989772 2.7540002 5.4348422e-39
0.35933146 -1.0989772 2.7540002 5.8940309e-39
0.36457717 -1.0989772 2.7540002 6.3531874e-39
0.37291145 -1.1081554 2.7770002 5.894349e-39
0.37506858 -1.0989772 2.7540002 5.5255749e-39
0.3834905 -1.1081554 2.7770002 5.3429829e-39
0.38878003 -1.1081554 2.7770002 5.158956e-39
0.39406955 -1.1081554 2.7770002 5.5259434e-39
0.39935908 -1.1081554 2.7770002 5.9829755e-39
0.4046486 -1.1081554 2.7770002 6.7173078e-39
0.40993813 -1.1081554 2.7770002 7.4512715e-39
0.41522765 -1.1081554 2.7770002 6.5361409e-39
0.42051718 -1.1081554 2.7770002 5.7092613e-39
0.42580667 -1.1081554 2.7770002 6.3517482e-39
0.43109623 -1.1081554 2.7770002 7.0860819e-39
0.43638572 -1.1081554 2.7770002 6.2592121e-39
0.44167528 -1.1081554 2.7770002 5.5245239e-39
0.44696477 -1.1081554 2.7770002 5.9836986e-39
0.45225433 -1.1081554 2.7770002 6.4414467e-39
0.45375434 -1.0989772 2.7540002 6.0741104e-39
0.46283337 -1.1081554 2.7770002 5.7975221e-39
0.46812287 -1.1081554 2.7770002 5.7049635e-39
0.46949145 -1.0989772 2.7540002 5.7060355e-39
0.47870192 -1.1081554 2.7770002 6.2588365e-39
0.47998288 -1.0989772 2.7540002 6.8098495e-39
0.489281 -1.1081554 2.7770002 6.3506734e-39
0.49457049 -1.1081554 2.7770002 5.8911344e-39
0.49986002 -1.1081554 2.7770002 5.9826098e-39
0.50514954 -1.1081554 2.7770002 6.0730131e-39
0.5104391 -1.1081554 2.7770002 5.7092627e-39
0.51572859 -1.1081554 2.7770002 5.3379831e-39
0.52101815 -1.1081554 2.7770002 5.1557554e-39
0.52630764 -1.1081554 2.7770002 5.0646206e-39
0.5315972 -1.1081554 2.7770002 4.9738458e-39
0.53688669 -1.1081554 2.7770002 4.9734871e-39
0.54217625 -1.1081554 2.7770002 5.6159768e-39
0.5429315 -1.0989772 2.7540002 6.3506664e-39
0.5527553 -1.1081554 2.7770002 5.4323171e-39
0.55804479 -1.1081554 2.7770002 4.6058032e-39
0.56333429 -1.1081554 2.7770002 4.6987205e-39
0.5639143 -1.0989772 2.7540002 4.789491e-39
0.56916004 -1.0989772 2.7540002 4.7902211e-39
0.57440573 -1.0989772 2.7540002 4.7891337e-39
0.57965147 -1.0989772 2.7540002 4.7884036e-39
0.58043712 -1.0905972 2.733 4.8795202e-39
0.58564281 -1.0905972 2.733 5.154668e-39
0.59084857 -1.0905972 2.733 5.4301745e-39
0.60063428 -1.0989772 2.7540002 5.4305346e-39
0.60588008 -1.0989772 2.7540002 5.4298172e-39
0.6064657 -1.0905972 2.733 5.8915072e-39
0.61167145 -1.0905972 2.733 6.4385797e-39
0.61687714 -1.0905972 2.733 5.7943033e-39
0.62208289 -1.0905972 2.733 5.1535946e-39
0.62728858 -1.0905972 2.733 5.1571707e-39
0.63249427 -1.0905972 2.733 5.154661e-39
0.63770002 -1.0905972 2.733 5.2457804e-39
0.64290571 -1.0905972 2.733 5.3387019e-39
0.65309143 -1.0989772 2.7540002 5.2468776e-39
0.65833718 -1.0989772 2.7540002 5.1535988e-39
0.66358286 -1.0989772 2.7540002 5.0617549e-39
0.66882861 -1.0989772 2.7540002 4.97099e-39
0.67407435 -1.0989772 2.7540002 4.6040025e-39
0.67932004 -1.0989772 2.7540002 4.2352256e-39
0.67934567 -1.0905972 2.733 5.2464923e-39
0.68455142 -1.0905972 2.733 6.2581233e-39
0.68975711 -1.0905972 2.733 5.5248798e-39
0.69496286 -1.0905972 2.733 4.7891127e-39
0.70016855 -1.0905972 2.733 4.696194e-39
0.7053743 -1.0905972 2.733 4.696187e-39
0.71057999 -1.0905972 2.733 5.5230581e-39
0.71578574 -1.0905972 2.733 6.4414257e-39
0.72099143 -1.0905972 2.733 5.6149189e-39
0.72619712 -1.0905972 2.733 4.7880477e-39
0.73140287 -1.0905972 2.733 3.7775069e-39
0.73660856 -1.0905972 2.733 2.8591379e-39
0.74181432 -1.0905972 2.733 3.5938093e-39
0.75276005 -1.0989772 2.7540002 4.3299226e-39
0.7580058 -1.0989772 2.7540002 4.4228301e-39
0.76325148 -1.0989772 2.7540002 4.5139551e-39
0.76849717 -1.0989772 2.7540002 4.4217693e-39
0.77374291 -1.0989772 2.7540002 4.4210504e-39
0.7789886 -1.0989772 2.7540002 4.052991e-39
0.78423434 -1.0989772 2.7540002 3.7774831e-39
0.78345996 -1.0905972 2.733 3.9611527e-39
0.79472572 -1.0989772 2.7540002 4.1434097e-39
0.79997146 -1.0989772 2.7540002 4.508263e-39
0.80521715 -1.0989772 2.7540002 4.9677866e-39
0.81046295 -1.0989772 2.7540002 4.7848205e-39
0.81570864 -1.0989772 2.7540002 4.6018614e-39
0.81469429 -1.0905972 2.733 4.5075105e-39
0.82620007 -1.0989772 2.7540002 4.5107419e-39
0.82510573 -1.0905972 2.733 4.4196267e-39
0.83031142 -1.0905972 2.733 4.3274283e-39
0.83551717 -1.0905972 2.733 3.4090705e-39
0.84072286 -1.0905972 2.733 2.4914246e-39
0.84592861 -1.0905972 2.733 3.3182944e-39
0.8511343 -1.0905972 2.733 4.2366648e-39
0.85634005 -1.0905972 2.733 4.3285157e-39
0.86154568 -1.0905972 2.733 4.5114594e-39
0.86675143 -1.0905972 2.733 4.6029263e-39
0.87195712 -1.0905972 2.733 4.6936744e-39
0.87716287 -1.0905972 2.733 4.6011103e-39
0.88236856 -1.0905972 2.733 4.6018333e-39
0.88757426 -1.0905972 2.733 4.5089258e-39
0.89278001 -1.0905972 2.733 4.5085853e-39
0.8979857 -1.0905972 2.733 4.5082448e-39
0.90319145 -1.0905972 2.733 4.5997174e-39
0.90839714 -1.0905972 2.733 4.5993544e-39
0.91360289 -1.0905972 2.733 4.600425e-39
0.91141248 -1.0818181 2.7110002 4.6936898e-39
0.91657627 -1.0818181 2.7110002 4.8769951e-39
0.92174006 -1.0818181 2.7110002 4.785154e-39
0.91972381 -1.073438 2.6900001 4.6943905e-39
0.93206769 -1.0818181 2.7110002 3.8693032e-39
0.93723148 -1.0818181 2.7110002 3.1350031e-39
0.94239533 -1.0818181 2.7110002 3.6863987e-39
0.9402191 -1.073438 2.6900001 4.326722e-39
0.95272291 -1.0818181 2.7110002 3.3122127e-39
0.95046669 -1.073438 2.6900001 2.3952871e-39
0.95559049 -1.073438 2.6900001 3.2228772e-39
0.96071428 -1.073438 2.6900001 4.1412279e-39
0.96583807 -1.073438 2.6900001 4.1415825e-39
0.97096193 -1.073438 2.6900001 4.1426727e-39
0.97608572 -1.073438 2.6900001 3.2243317e-39
0.98120952 -1.073438 2.6900001 2.3977954e-39
0.98633337 -1.073438 2.6900001 2.948793e-39
0.99145716 -1.073438 2.6900001 3.5927191e-39
0.99658096 -1.073438 2.6900001 3.6820434e-39
1.0017048 -1.073438 2.6900001 3.7731643e-39
1.0068285 -1.073438 2.6900001 3.9586303e-39
1.0119524 -1.073438 2.6900001 4.1423027e-39
1.0091362 -1.0650581 2.6690001 4.1408692e-39
1.01422 -1.0650581 2.6690001 4.1401531e-39
1.0193038 -1.0650581 2.6690001 4.0458093e-39
1.0243877 -1.0650581 2.6690001 4.0461624e-39
1.0294715 -1.0650581 2.6690001 2.6693433e-39
1.0345553 -1.0650581 2.6690001 1.385084e-39
1.0396391 -1.0650581 2.6690001 2.3970724e-39
1.0447229 -1.0650581 2.6690001 3.4065412e-39
1.0498067 -1.0650581 2.6690001 3.8653571e-39
1.0548905 -1.0650581 2.6690001 4.3245402e-39
1.0599743 -1.0650581 2.6690001 4.0490393e-39
1.0650581 -1.0650581 2.6690001 3.8660788e-39
1.0701419 -1.0650581 2.6690001 2.8569575e-39
1.0752257 -1.0650581 2.6690001 1.9375277e-39
1.0803096 -1.0650581 2.6690001 2.7626151e-39
1.0853934 -1.0650581 2.6690001 3.5887842e-39
1.0904772 -1.0650581 2.6690001 3.9557759e-39
1.095561 -1.0650581 2.6690001 4.3227437e-39
1.1006448 -1.0650581 2.6690001 2.9448385e-39
1.1057286 -1.0650581 2.6690001 1.6584353e-39
1.1108124 -1.0650581 2.6690001 3.0356203e-39
1.1158962 -1.0650581 2.6690001 4.5053581e-39
1.12098 -1.0650581 2.6690001 3.3122254e-39
1.1260638 -1.0650581 2.6690001 2.1176296e-39
1.1311476 -1.0650581 2.6690001 3.1274459e-39
1.1362315 -1.0650581 2.6690001 4.1387308e-39
1.1327629 -1.0570772 2.6490002 4.2298671e-39
1.1378087 -1.0570772 2.6490002 4.3227619e-39
1.1428543 -1.0570772 2.6490002 3.8646438e-39
1.1479 -1.0570772 2.6490002 3.4973033e-39
1.1529458 -1.0570772 2.6490002 3.4983809e-39
1.1579915 -1.0570772 2.6490002 3.588071e-39
1.1630372 -1.0570772 2.6490002 3.402972e-39
1.168083 -1.0570772 2.6490002 3.219657e-39
1.1731286 -1.0570772 2.6490002 3.312926e-39
1.1781744 -1.0570772 2.6490002 3.4965998e-39
1.18322 -1.0570772 2.6490002 3.4966012e-39
1.1882658 -1.0570772 2.6490002 3.5884325e-39
1.1933115 -1.0570772 2.6490002 3.6806225e-39
1.1983571 -1.0570772 2.6490002 3.8628544e-39
1.203403 -1.0570772 2.6490002 3.4940719e-39
1.2084486 -1.0570772 2.6490002 3.1281606e-39
1.2043325 -1.0490962 2.6290002 3.496576e-39
1.2185401 -1.0570772 2.6490002 3.8657088e-39
1.2143477 -1.0490962 2.6290002 2.5807279e-39
1.2193553 -1.0490962 2.6290002 1.2939716e-39
1.2243629 -1.0490962 2.6290002 2.3034628e-39
1.2293706 -1.0490962 2.6290002 3.3136449e-39
1.2343781 -1.0490962 2.6290002 3.1299655e-39
1.2393858 -1.0490962 2.6290002 3.0366922e-39
1.2443933 -1.0490962 2.6290002 3.0370496e-39
1.249401 -1.0490962 2.6290002 3.036688e-39
1.2544087 -1.0490962 2.6290002 2.6693433e-39
1.2594162 -1.0490962 2.6290002 2.3938298e-39
1.264424 -1.0490962 2.6290002 3.4072432e-39
1.2694315 -1.0490962 2.6290002 4.5074769e-39
1.2744392 -1.0490962 2.6290002 3.6809602e-39
1.2794467 -1.0490962 2.6290002 2.8537233e-39
1.2844543 -1.0490962 2.6290002 2.7600941e-39
1.289462 -1.0490962 2.6290002 2.6686202e-39
1.3043172 -1.0570772 2.6490002 2.9437707e-39
1.3093629 -1.0570772 2.6490002 3.220359e-39
1.3044848 -1.0490962 2.6290002 3.1260194e-39
1.3194544 -1.0570772 2.6490002 3.1256621e-39
1.3245001 -1.0570772 2.6490002 2.9412764e-39
1.3295457 -1.0570772 2.6490002 2.8512234e-39
1.3345915 -1.0570772 2.6490002 2.8515709e-39
1.3396373 -1.0570772 2.6490002 2.8515737e-39
1.3446829 -1.0570772 2.6490002 3.0341713e-39
1.3497286 -1.0570772 2.6490002 3.2192828e-39
1.3547744 -1.0570772 2.6490002 2.5778749e-39
1.35982 -1.0570772 2.6490002 1.9353796e-39
1.3648658 -1.0570772 2.6490002 2.3005649e-39
1.3699116 -1.0570772 2.6490002 2.7608284e-39
1.3749572 -1.0570772 2.6490002 2.4871268e-39
1.3800029 -1.0570772 2.6490002 2.3016467e-39
1.4174658 -1.0818181 2.7110002 2.300195e-39
1.4226296 -1.0818181 2.7110002 2.3916802e-39
1.4277934 -1.0818181 2.7110002 2.2090952e-39
1.4445858 -1.0905972 2.733 2.118689e-39
1.4497914 -1.0905972 2.733 2.4878191e-39
1.4432849 -1.0818181 2.7110002 2.9451987e-39
1.4484487 -1.0818181 2.7110002 2.6704068e-39
1.4536124 -1.0818181 2.7110002 2.3924004e-39
-1.0316668 -0.69500005 1.7500001 5.8003821e-39
-1.0336219 -0.6985743 1.7590001 5.5248798e-39
-1.035543 -0.70214862 1.7680001 5.2493776e-39
-1.0374296 -0.70572287 1.7770001 4.9738725e-39
-1.039282 -0.70929724 1.7860001 5.1575449e-39
-1.0358801 -0.70929724 1.7860001 5.3415732e-39
-1.0324781 -0.70929724 1.7860001 5.065708e-39
-1.0342619 -0.71287143 1.7950001 4.8820131e-39
-1.0360116 -0.71644574 1.8040001 5.3404507e-39
-1.0440229 -0.7243886 1.8240001 5.7992779e-39
-1.0405486 -0.7243886 1.8240001 5.799645e-39
-1.0370743 -0.7243886 1.8240001 5.7996366e-39
-1.0336 -0.7243886 1.8240001 6.1676877e-39
-1.0352086 -0.72796285 1.8330001 6.535778e-39
-1.0373458 -0.73193431 1.8430001 5.4334255e-39
-1.0338352 -0.73193431 1.8430001 4.331031e-39
-1.0415058 -0.73987716 1.863 4.6065277e-39
-1.0379571 -0.73987716 1.863 4.9742242e-39
-1.0344086 -0.73987716 1.863 4.9738613e-39
-1.0363934 -0.74384862 1.8730001 5.0631674e-39
-1.0444057 -0.75218862 1.8940001 5.4315688e-39
-1.0407981 -0.75218862 1.8940001 5.8014317e-39
-1.0426667 -0.75616002 1.904 4.8830865e-39
-1.0390401 -0.75616002 1.904 4.0565671e-39
-1.0354134 -0.75616002 1.904 4.5146684e-39
-1.0317867 -0.75616002 1.904 4.9731354e-39
-1.02816 -0.75616002 1.904 4.8816656e-39
-1.0245334 -0.75616002 1.904 4.7901889e-39
-1.0380647 -0.76886863 1.9360001 5.0656968e-39
-1.0402544 -0.77323717 1.9470001 5.3411976e-39
-1.0365458 -0.77323717 1.9470001 5.0653282e-39
-1.0386724 -0.77760571 1.9580001 4.7909007e-39
-1.0349429 -0.77760571 1.9580001 5.3397655e-39
-1.0370067 -0.78197432 1.9690001 5.8900624e-39
-1.0274838 -0.77760571 1.9580001 5.1550225e-39
-1.0352571 -0.78634286 1.9800001 4.3281597e-39
-1.0314858 -0.78634286 1.9800001 5.4294836e-39
-1.0339428 -0.79110861 1.9920001 6.4378636e-39
-1.0301486 -0.79110861 1.9920001 5.7045978e-39
-1.0320219 -0.79547715 2.003 4.9713557e-39
-1.0282067 -0.79547715 2.003 4.6958563e-39
-1.0305287 -0.8002429 2.0150001 4.5121993e-39
-1.0266905 -0.8002429 2.0150001 4.7873624e-39
-1.0289439 -0.80500865 2.0270002 5.0628535e-39
-1.0250829 -0.80500865 2.0270002 4.9699264e-39
-1.021222 -0.80500865 2.0270002 4.9720774e-39
-1.0233837 -0.80977428 2.039 5.0646304e-39
-1.0255001 -0.81454003 2.0510001 5.0656939e-39
-1.0215935 -0.81454003 2.0510001 5.1553644e-39
-1.0176867 -0.81454003 2.0510001 5.2454091e-39
-1.0197116 -0.81930578 2.0630002 5.0620996e-39
-1.0221829 -0.82446861 2.0760002 4.9709858e-39
-1.0182287 -0.82446861 2.0760002 5.2461392e-39
-1.0142745 -0.82446861 2.0760002 5.5212883e-39
-1.01616 -0.8292343 2.0880001 5.2457832e-39
-1.0121828 -0.8292343 2.0880001 4.9699348e-39
-1.0144829 -0.83439714 2.1010001 5.337295e-39
-1.0167334 -0.83956003 2.1140001 5.7950264e-39
-1.0189344 -0.84472287 2.1270001 5.4276746e-39
-1.0148829 -0.84472287 2.1270001 5.0617549e-39
-1.0170096 -0.84988576 2.1400001 5.062101e-39
-1.0129334 -0.84988576 2.1400001 5.0628325e-39
-1.0149858 -0.8550486 2.1530001 5.3372768e-39
-1.0108849 -0.8550486 2.1530001 5.6116973e-39
-1.0067838 -0.8550486 2.1530001 5.2457804e-39
-1.009203 -0.86060858 2.1670001 4.9709872e-39
-0.99858201 -0.8550486 2.1530001 5.0621024e-39
-1.0009476 -0.86060858 2.1670001 5.0610178e-39
-0.99681997 -0.86060858 2.1670001 5.2443217e-39
-0.99910575 -0.86616856 2.181 5.4276676e-39
-1.0008819 -0.87133145 2.194 4.8770469e-39
-1.003063 -0.87689149 2.2080002 4.4185533e-39
-0.9988572 -0.87689149 2.2080002 5.1521274e-39
-0.99465144 -0.87689149 2.2080002 5.8860995e-39
-0.99717432 -0.88284856 2.223 4.7858743e-39
-0.99294001 -0.88284856 2.223 3.6852846e-39
-0.98870569 -0.88284856 2.223 4.3256248e-39
-0.9844715 -0.88284856 2.223 4.9684607e-39
-0.99302477 -0.89436573 2.2520001 5.0599262e-39
-0.99488187 -0.89992571 2.266 5.1499891e-39
-0.99056572 -0.89992571 2.266 5.1500115e-39
-0.99277818 -0.90588289 2.2810001 5.1503604e-39
-0.98843342 -0.90588289 2.2810001 4.6904556e-39
-0.99099153 -0.91223717 2.2970002 4.2345096e-39
-0.98661619 -0.91223717 2.2970002 4.6007796e-39
-0.98224097 -0.91223717 2.2970002 4.8748539e-39
-0.97786576 -0.91223717 2.2970002 5.0585277e-39
-0.97349054 -0.91223717 2.2970002 5.3344055e-39
-0.97544384 -0.91819429 2.312 4.6912109e-39
-0.97104001 -0.91819429 2.312 4.1401854e-39
-0.97290766 -0.92415148 2.3270001 4.6904697e-39
-0.97513431 -0.93050575 2.3430002 5.1489213e-39
-0.97730005 -0.93686002 2.3590002 5.0577962e-39
-0.97280675 -0.93686002 2.3590002 4.8751944e-39
-0.9683134 -0.93686002 2.3590002 4.8773398e-39
-0.9638201 -0.93686002 2.3590002 4.8794852e-39
-0.96624005 -0.94361144 2.3760002 4.7858504e-39
-0.96171433 -0.94361144 2.3760002 4.7851428e-39
-0.97048295 -0.95671719 2.4090002 5.1510596e-39
-0.97271055 -0.96346861 2.4260001 5.6084505e-39
-0.9748733 -0.97022003 2.4430001 5.2411169e-39
-0.97697151 -0.97697151 2.46 4.7822996e-39
-0.96556669 -0.97022003 2.4430001 4.9681243e-39
-0.96091336 -0.97022003 2.4430001 5.1535792e-39
-0.95626003 -0.97022003 2.4430001 4.6933171e-39
-0.95822859 -0.97697151 2.46 4.3259765e-39
-0.96052009 -0.98412001 2.4780002 4.4178148e-39
-0.95580006 -0.98412001 2.4780002 4.6014746e-39
-0.95108008 -0.98412001 2.4780002 4.6014648e-39
-0.95323426 -0.99126858 2.4960001 4.6014774e-39
-0.96215999 -1.0055656 2.5320001 4.6922493e-39
-0.9573372 -1.0055656 2.5320001 4.8751972e-39
-0.95251429 -1.0055656 2.5320001 4.600404e-39
-0.95480287 -1.0131115 2.5510001 4.4174449e-39
-0.94286859 -1.0055656 2.5320001 4.324529e-39
-0.94508481 -1.0131115 2.5510001 4.2316229e-39
-0.94022578 -1.0131115 2.5510001 4.3234654e-39
-0.9423334 -1.0206572 2.5700002 4.5075119e-39
