# .PCD v0.7 - Point Cloud Data file format
VERSION 0.7
FIELDS x y z rgb
SIZE 4 4 4 4
TYPE F F F F
COUNT 1 1 1 1
WIDTH 1011
HEIGHT 1
VIEWPOINT 0 0 0 0 1 0 0
POINTS 1011
DATA ascii
-0.8052001 -0.74862862 1.9800001 1.3270783e-38
-0.80628574 -0.75316572 1.9920001 1.308747e-38
-0.80249143 -0.75316572 1.9920001 1.3362978e-38
-0.79388577 -0.74862862 1.9800001 1.3638845e-38
-0.79011434 -0.74862862 1.9800001 1.3914353e-38
-0.79110861 -0.75316572 1.9920001 1.4189852e-38
-0.78731436 -0.75316572 1.9920001 1.3546638e-38
-0.78352004 -0.75316572 1.9920001 1.2812313e-38
-0.77972573 -0.75316572 1.9920001 1.3179296e-38
-0.77593142 -0.75316572 1.9920001 1.354593e-38
-0.77213717 -0.75316572 1.9920001 1.3730329e-38
-0.76834291 -0.75316572 1.9920001 1.3822861e-38
-0.7645486 -0.75316572 1.9920001 1.3547335e-38
-0.76495522 -0.75732476 2.003 1.3180005e-38
-0.75696003 -0.75316572 1.9920001 1.336333e-38
-0.75316572 -0.75316572 1.9920001 1.3638832e-38
-0.74937147 -0.75316572 1.9920001 1.3455159e-38
-0.74557716 -0.75316572 1.9920001 1.336332e-38
-0.7417829 -0.75316572 1.9920001 1.3179289e-38
-0.73798865 -0.75316572 1.9920001 1.3087456e-38
-0.73419434 -0.75316572 1.9920001 1.3088178e-38
-0.73040003 -0.75316572 1.9920001 1.3088904e-38
-0.72660571 -0.75316572 1.9920001 1.3272583e-38
-0.72281146 -0.75316572 1.9920001 1.3454454e-38
-0.71901715 -0.75316572 1.9920001 1.2995987e-38
-0.71522284 -0.75316572 1.9920001 1.2629361e-38
-0.71142864 -0.75316572 1.9920001 1.2996344e-38
-0.70763433 -0.75316572 1.9920001 1.3455519e-38
-0.70772672 -0.75732476 2.003 1.3180011e-38
-0.70391142 -0.75732476 2.003 1.2904866e-38
-0.70009619 -0.75732476 2.003 1.3088181e-38
-0.69628096 -0.75732476 2.003 1.3363327e-38
-0.69246572 -0.75732476 2.003 1.3455161e-38
-0.68865049 -0.75732476 2.003 1.3639181e-38
-0.68483526 -0.75732476 2.003 1.3638814e-38
-0.68101996 -0.75732476 2.003 1.3638825e-38
-0.67720473 -0.75732476 2.003 1.3638479e-38
-0.67338955 -0.75732476 2.003 1.3638476e-38
-0.66957426 -0.75732476 2.003 1.3454803e-38
-0.66575903 -0.75732476 2.003 1.3271496e-38
-0.66194379 -0.75732476 2.003 1.3455531e-38
-0.66207147 -0.76186192 2.0150001 1.3639551e-38
-0.65431333 -0.75732476 2.003 1.3271842e-38
-0.65049809 -0.75732476 2.003 1.2812309e-38
-0.65055716 -0.76186192 2.0150001 1.327113e-38
-0.64286762 -0.75732476 2.003 1.3638472e-38
-0.64288098 -0.76186192 2.0150001 1.3454803e-38
-0.63904291 -0.76186192 2.0150001 1.3271482e-38
-0.63520479 -0.76186192 2.0150001 1.336331e-38
-0.63136673 -0.76186192 2.0150001 1.3455153e-38
-0.62752861 -0.76186192 2.0150001 1.3638113e-38
-0.62369055 -0.76186192 2.0150001 1.3822859e-38
-0.61985242 -0.76186192 2.0150001 1.3271127e-38
-0.61601436 -0.76186192 2.0150001 1.2719767e-38
-0.61582196 -0.76639909 2.0270002 1.2995643e-38
-0.60833812 -0.76186192 2.0150001 1.3271503e-38
-0.60450006 -0.76186192 2.0150001 1.2995992e-38
-0.60423911 -0.76639909 2.0270002 1.2720479e-38
-0.6003781 -0.76639909 2.0270002 1.2996338e-38
-0.59651721 -0.76639909 2.0270002 1.3272191e-38
-0.59265625 -0.76639909 2.0270002 1.3546969e-38
-0.5887953 -0.76639909 2.0270002 1.3912527e-38
-0.58493429 -0.76639909 2.0270002 1.3361884e-38
-0.58451337 -0.77093619 2.039 1.28116e-38
-0.58062953 -0.77093619 2.039 1.3270431e-38
-0.57674569 -0.77093619 2.039 1.3729247e-38
-0.57286191 -0.77093619 2.039 1.3454457e-38
-0.56897807 -0.77093619 2.039 1.3274006e-38
-0.56509429 -0.77093619 2.039 1.3273999e-38
-0.56121045 -0.77093619 2.039 1.3366187e-38
-0.55732667 -0.77093619 2.039 1.3180717e-38
-0.55344284 -0.77093619 2.039 1.3088886e-38
-0.54955906 -0.77093619 2.039 1.2996697e-38
-0.54567522 -0.77093619 2.039 1.2996686e-38
-0.54179138 -0.77093619 2.039 1.2996316e-38
-0.53790766 -0.77093619 2.039 1.3088876e-38
-0.53402382 -0.77093619 2.039 1.3089242e-38
-0.53014004 -0.77093619 2.039 1.3181439e-38
-0.5262562 -0.77093619 2.039 1.3088171e-38
-0.52237242 -0.77093619 2.039 1.2996697e-38
-0.51848859 -0.77093619 2.039 1.2628999e-38
-0.51460481 -0.77093619 2.039 1.2353497e-38
-0.51072097 -0.77093619 2.039 1.2812679e-38
-0.50683713 -0.77093619 2.039 1.3364048e-38
-0.50295335 -0.77093619 2.039 1.3638476e-38
-0.50200671 -0.77547342 2.0510001 1.3913977e-38
-0.49810001 -0.77547342 2.0510001 1.3545912e-38
-0.49419335 -0.77547342 2.0510001 1.3178214e-38
-0.48741809 -0.77093619 2.039 1.3178217e-38
-0.48638004 -0.77547342 2.0510001 1.3086384e-38
-0.48247334 -0.77547342 2.0510001 1.2995987e-38
-0.47856668 -0.77547342 2.0510001 1.2905582e-38
-0.47466004 -0.77547342 2.0510001 1.2813383e-38
-0.47075334 -0.77547342 2.0510001 1.2721544e-38
-0.46684667 -0.77547342 2.0510001 1.253787e-38
-0.46294004 -0.77547342 2.0510001 1.244604e-38
-0.45903334 -0.77547342 2.0510001 1.3088894e-38
-0.45512667 -0.77547342 2.0510001 1.3732108e-38
-0.45122004 -0.77547342 2.0510001 1.3362981e-38
-0.44731334 -0.77547342 2.0510001 1.2996348e-38
-0.4434067 -0.77547342 2.0510001 1.3087458e-38
-0.44207147 -0.78001058 2.0630002 1.3181088e-38
-0.43814194 -0.78001058 2.0630002 1.2904866e-38
-0.43421242 -0.78001058 2.0630002 1.2720472e-38
-0.42778003 -0.77547342 2.0510001 1.2901986e-38
-0.42635337 -0.78001058 2.0630002 1.3175703e-38
-0.42242384 -0.78001058 2.0630002 1.3455519e-38
-0.41849431 -0.78001058 2.0630002 1.3731022e-38
-0.41456479 -0.78001058 2.0630002 1.3822139e-38
-0.41063529 -0.78001058 2.0630002 1.4005453e-38
-0.40670577 -0.78001058 2.0630002 1.3729949e-38
-0.40531433 -0.78492576 2.0760002 1.3455882e-38
-0.39884669 -0.78001058 2.0630002 1.3363334e-38
-0.39491719 -0.78001058 2.0630002 1.3270418e-38
-0.39345148 -0.78492576 2.0760002 1.3180374e-38
-0.38705814 -0.78001058 2.0630002 1.3089982e-38
-0.38312861 -0.78001058 2.0630002 1.2998515e-38
-0.38158861 -0.78492576 2.0760002 1.290737e-38
-0.37526956 -0.78001058 2.0630002 1.3088505e-38
-0.37368003 -0.78492576 2.0760002 1.3272903e-38
-0.36972573 -0.78492576 2.0760002 1.3455149e-38
-0.36577144 -0.78492576 2.0760002 1.3638818e-38
-0.36181718 -0.78492576 2.0760002 1.35477e-38
-0.35786289 -0.78492576 2.0760002 1.3548411e-38
-0.3539086 -0.78492576 2.0760002 1.3639523e-38
-0.34995431 -0.78492576 2.0760002 1.3822488e-38
-0.34600005 -0.78492576 2.0760002 1.3638469e-38
-0.34204575 -0.78492576 2.0760002 1.3546275e-38
-0.33809146 -0.78492576 2.0760002 1.3362604e-38
-0.33413717 -0.78492576 2.0760002 1.3179288e-38
-0.33018291 -0.78492576 2.0760002 1.3545909e-38
-0.32622862 -0.78492576 2.0760002 1.3913619e-38
-0.3222743 -0.78492576 2.0760002 1.3638479e-38
-0.31832001 -0.78492576 2.0760002 1.3363686e-38
-0.31618285 -0.78946286 2.0880001 1.3272565e-38
-0.31220573 -0.78946286 2.0880001 1.3272921e-38
-0.30822858 -0.78946286 2.0880001 1.3271843e-38
-0.30425143 -0.78946286 2.0880001 1.3179649e-38
-0.30027428 -0.78946286 2.0880001 1.3822139e-38
-0.29629713 -0.78946286 2.0880001 1.4465705e-38
-0.29232001 -0.78946286 2.0880001 1.3914693e-38
-0.28834286 -0.78946286 2.0880001 1.3273278e-38
-0.28436571 -0.78946286 2.0880001 1.3272201e-38
-0.28038859 -0.78946286 2.0880001 1.3180009e-38
-0.27641141 -0.78946286 2.0880001 1.3455161e-38
-0.27243429 -0.78946286 2.0880001 1.3822501e-38
-0.26845714 -0.78946286 2.0880001 1.3455873e-38
-0.26447999 -0.78946286 2.0880001 1.3181079e-38
-0.26050287 -0.78946286 2.0880001 1.327291e-38
-0.25812286 -0.7943781 2.1010001 1.3365125e-38
-0.25254858 -0.78946286 2.0880001 1.3272236e-38
-0.24857143 -0.78946286 2.0880001 1.3270071e-38
-0.24611714 -0.7943781 2.1010001 1.3455524e-38
-0.24211524 -0.7943781 2.1010001 1.373246e-38
-0.23811334 -0.7943781 2.1010001 1.3548426e-38
-0.23411143 -0.7943781 2.1010001 1.3456585e-38
-0.23010953 -0.7943781 2.1010001 1.364025e-38
-0.22610763 -0.7943781 2.1010001 1.3823927e-38
-0.22210573 -0.7943781 2.1010001 1.354771e-38
-0.21810381 -0.7943781 2.1010001 1.3363323e-38
-0.21410191 -0.7943781 2.1010001 1.3364401e-38
-0.21010001 -0.7943781 2.1010001 1.3365115e-38
-0.20609809 -0.7943781 2.1010001 1.2998131e-38
-0.20209619 -0.7943781 2.1010001 1.2724411e-38
-0.19809429 -0.7943781 2.1010001 1.3089954e-38
-0.19409239 -0.7943781 2.1010001 1.3547344e-38
-0.19009048 -0.7943781 2.1010001 1.3547351e-38
-0.18608858 -0.7943781 2.1010001 1.3639187e-38
-0.18208668 -0.7943781 2.1010001 1.3913977e-38
-0.17808478 -0.7943781 2.1010001 1.4280951e-38
-0.17408286 -0.7943781 2.1010001 1.3913599e-38
-0.17008096 -0.7943781 2.1010001 1.3546624e-38
-0.16607906 -0.7943781 2.1010001 1.3180008e-38
-0.16308001 -0.7992934 2.1140001 1.2905222e-38
-0.15905334 -0.7992934 2.1140001 1.3364402e-38
-0.15502666 -0.7992934 2.1140001 1.3915411e-38
-0.15100001 -0.7992934 2.1140001 1.3456229e-38
-0.14697334 -0.7992934 2.1140001 1.3088889e-38
-0.14294668 -0.7992934 2.1140001 1.327292e-38
-0.13892001 -0.7992934 2.1140001 1.345731e-38
-0.13489333 -0.7992934 2.1140001 1.3731384e-38
-0.13086666 -0.7992934 2.1140001 1.4006173e-38
-0.12684001 -0.7992934 2.1140001 1.3914696e-38
-0.12281334 -0.7992934 2.1140001 1.3732101e-38
-0.11878667 -0.7992934 2.1140001 1.3639907e-38
-0.11476 -0.7992934 2.1140001 1.3548074e-38
-0.11073334 -0.7992934 2.1140001 1.3639195e-38
-0.10670667 -0.7992934 2.1140001 1.3731755e-38
-0.10268001 -0.7992934 2.1140001 1.3640285e-38
-0.099260002 -0.80420864 2.1270001 1.3640625e-38
-0.09520857 -0.80420864 2.1270001 1.3731724e-38
-0.091157146 -0.80420864 2.1270001 1.3733881e-38
-0.087105721 -0.80420864 2.1270001 1.3458021e-38
-0.083054289 -0.80420864 2.1270001 1.318216e-38
-0.079485722 -0.80912381 2.1400001 1.3365836e-38
-0.075409524 -0.80912381 2.1400001 1.3549863e-38
-0.070900001 -0.80420864 2.1270001 1.3548784e-38
-0.066848576 -0.80420864 2.1270001 1.364062e-38
-0.062797144 -0.80420864 2.1270001 1.3639904e-38
-0.058745716 -0.80420864 2.1270001 1.3727083e-38
-0.054694287 -0.80420864 2.1270001 1.3732473e-38
-0.050642859 -0.80420864 2.1270001 1.3733902e-38
-0.046876192 -0.80912381 2.1400001 1.3823221e-38
-0.042800002 -0.80912381 2.1400001 1.3915055e-38
-0.038723812 -0.80912381 2.1400001 1.3732459e-38
-0.034647621 -0.80912381 2.1400001 1.3457311e-38
-0.030571431 -0.80912381 2.1400001 1.3457311e-38
-0.026656192 -0.81403905 2.1530001 1.3549508e-38
-0.022555238 -0.81403905 2.1530001 1.34566e-38
-0.018454287 -0.81403905 2.1530001 1.3364401e-38
-0.014353334 -0.81403905 2.1530001 1.3088889e-38
-0.010252381 -0.81403905 2.1530001 1.2813744e-38
-0.0061514289 -0.81403905 2.1530001 1.3089254e-38
-0.0020504764 -0.81403905 2.1530001 1.3274716e-38
0.0020504764 -0.81403905 2.1530001 1.336655e-38
0.0061514289 -0.81403905 2.1530001 1.3550218e-38
0.010252381 -0.81403905 2.1530001 1.3364752e-38
0.014353334 -0.81403905 2.1530001 1.3181084e-38
0.018574286 -0.81933236 2.1670001 1.3731741e-38
0.022701904 -0.81933236 2.1670001 1.4282753e-38
0.026829524 -0.81933236 2.1670001 1.3824291e-38
0.030957144 -0.81933236 2.1670001 1.3365834e-38
0.035084762 -0.81933236 2.1670001 1.3640986e-38
0.03921238 -0.81933236 2.1670001 1.3824653e-38
0.043340001 -0.81933236 2.1670001 1.3916127e-38
0.047467619 -0.81933236 2.1670001 1.4099445e-38
0.051261909 -0.81403905 2.1530001 1.373211e-38
0.055362862 -0.81403905 2.1530001 1.3457315e-38
0.059463814 -0.81403905 2.1530001 1.3549146e-38
0.063564762 -0.81403905 2.1530001 1.3641342e-38
0.067665718 -0.81403905 2.1530001 1.4099803e-38
0.071766667 -0.81403905 2.1530001 1.4558985e-38
0.075867623 -0.81403905 2.1530001 1.4282049e-38
0.079968572 -0.81403905 2.1530001 1.4097657e-38
0.084616192 -0.81933236 2.1670001 1.3915058e-38
0.088743806 -0.81933236 2.1670001 1.3823582e-38
0.092871428 -0.81933236 2.1670001 1.3272929e-38
0.09762571 -0.82462567 2.181 1.2814469e-38
0.10178 -0.82462567 2.181 1.3088541e-38
0.10593428 -0.82462567 2.181 1.345624e-38
0.11008857 -0.82462567 2.181 1.3457317e-38
0.11350953 -0.81933236 2.1670001 1.3454801e-38
0.11763714 -0.81933236 2.1670001 1.3365474e-38
0.12176476 -0.81933236 2.1670001 1.3273997e-38
0.12589237 -0.81933236 2.1670001 1.3548788e-38
0.13001999 -0.81933236 2.1670001 1.3823935e-38
0.13414763 -0.81933236 2.1670001 1.4099443e-38
0.13827525 -0.81933236 2.1670001 1.4467141e-38
0.14240287 -0.81933236 2.1670001 1.4099439e-38
0.14747714 -0.82462567 2.181 1.3825722e-38
0.15163143 -0.82462567 2.181 1.3640613e-38
0.15578571 -0.82462567 2.181 1.3455865e-38
0.16089334 -0.82954097 2.194 1.3639176e-38
0.16507238 -0.82954097 2.194 1.3822496e-38
0.16925143 -0.82954097 2.194 1.3916135e-38
0.17343047 -0.82954097 2.194 1.4008325e-38
0.17760953 -0.82954097 2.194 1.3916127e-38
0.18178858 -0.82954097 2.194 1.3826444e-38
0.18596762 -0.82954097 2.194 1.4009397e-38
0.19014667 -0.82954097 2.194 1.4192348e-38
0.19432572 -0.82954097 2.194 1.4099794e-38
0.19850476 -0.82954097 2.194 1.4010106e-38
0.20268381 -0.82954097 2.194 1.3826433e-38
0.20686285 -0.82954097 2.194 1.3729939e-38
0.2110419 -0.82954097 2.194 1.3733175e-38
0.21522094 -0.82954097 2.194 1.3641698e-38
0.21939999 -0.82954097 2.194 1.3549864e-38
0.22357903 -0.82954097 2.194 1.3550235e-38
0.22775809 -0.82954097 2.194 1.4008349e-38
0.23193714 -0.82954097 2.194 1.4558626e-38
0.23762289 -0.83483434 2.2080002 1.4098355e-38
0.24029523 -0.82954097 2.194 1.3637388e-38
0.24603431 -0.83483434 2.2080002 1.3916846e-38
0.25024 -0.83483434 2.2080002 1.410123e-38
0.25444573 -0.83483434 2.2080002 1.4192703e-38
0.25865144 -0.83483434 2.2080002 1.4193428e-38
0.26285717 -0.83483434 2.2080002 1.4284196e-38
0.26706287 -0.83483434 2.2080002 1.4465004e-38
0.27126861 -0.83483434 2.2080002 1.4190224e-38
0.27547431 -0.83483434 2.2080002 1.3915423e-38
0.27968001 -0.83483434 2.2080002 1.3915772e-38
0.28388572 -0.83483434 2.2080002 1.3916493e-38
0.28809145 -0.83483434 2.2080002 1.3823585e-38
0.29428285 -0.84050572 2.223 1.3733902e-38
0.29851714 -0.84050572 2.223 1.3734261e-38
0.30275142 -0.84050572 2.223 1.3824314e-38
0.30698574 -0.84050572 2.223 1.3824325e-38
0.31121999 -0.84050572 2.223 1.3826107e-38
0.3154543 -0.84050572 2.223 1.3733185e-38
0.31968856 -0.84050572 2.223 1.3641348e-38
0.32392287 -0.84050572 2.223 1.3916854e-38
0.3302238 -0.84579903 2.237 1.4192362e-38
0.33448476 -0.84579903 2.237 1.4283842e-38
0.33874568 -0.84579903 2.237 1.4467511e-38
0.34530669 -0.85147053 2.2520001 1.4284199e-38
0.34726763 -0.84579903 2.237 1.4193092e-38
0.35152858 -0.84579903 2.237 1.3825404e-38
0.35578954 -0.84579903 2.237 1.3549886e-38
0.36005047 -0.84579903 2.237 1.3825023e-38
0.36431143 -0.84579903 2.237 1.4099449e-38
0.3710438 -0.85147053 2.2520001 1.4010838e-38
0.37283334 -0.84579903 2.237 1.4011921e-38
0.37962285 -0.85147053 2.2520001 1.4008701e-38
0.38391238 -0.85147053 2.2520001 1.4009411e-38
0.38820192 -0.85147053 2.2520001 1.3917929e-38
0.39493144 -0.85676378 2.266 1.3918283e-38
0.39924762 -0.85676378 2.266 1.3642773e-38
0.40107051 -0.85147053 2.2520001 1.3366189e-38
0.40788001 -0.85676378 2.266 1.3549501e-38
0.41219619 -0.85676378 2.266 1.3640981e-38
0.4165124 -0.85676378 2.266 1.3732819e-38
0.41822857 -0.85147053 2.2520001 1.3827526e-38
0.4225181 -0.85147053 2.2520001 1.3918286e-38
0.42680761 -0.85147053 2.2520001 1.4007615e-38
0.43109715 -0.85147053 2.2520001 1.3732114e-38
0.43538666 -0.85147053 2.2520001 1.354881e-38
0.43967623 -0.85147053 2.2520001 1.3824325e-38
0.44396573 -0.85147053 2.2520001 1.4192721e-38
0.44825527 -0.85147053 2.2520001 1.4284535e-38
0.45535809 -0.85676378 2.266 1.4377097e-38
0.4596743 -0.85676378 2.266 1.4285271e-38
0.46399048 -0.85676378 2.266 1.4193438e-38
0.46830669 -0.85676378 2.266 1.4192725e-38
0.47262284 -0.85676378 2.266 1.4192363e-38
0.47693905 -0.85676378 2.266 1.3917573e-38
0.48125523 -0.85676378 2.266 1.3642781e-38
0.48557144 -0.85676378 2.266 1.3824656e-38
0.48988762 -0.85676378 2.266 1.4099443e-38
0.49420381 -0.85676378 2.266 1.391649e-38
0.49851999 -0.85676378 2.266 1.3733169e-38
0.50283623 -0.85676378 2.266 1.3824998e-38
0.50715238 -0.85676378 2.266 1.4008676e-38
0.51146853 -0.85676378 2.266 1.4191279e-38
0.5157848 -0.85676378 2.266 1.4282758e-38
0.52354383 -0.86243528 2.2810001 1.4190927e-38
0.5278886 -0.86243528 2.2810001 1.409909e-38
0.53223336 -0.86243528 2.2810001 1.4007971e-38
0.53657812 -0.86243528 2.2810001 1.4005097e-38
0.54092288 -0.86243528 2.2810001 1.4007245e-38
0.54526764 -0.86243528 2.2810001 1.4100517e-38
0.5496124 -0.86243528 2.2810001 1.3640982e-38
0.55395716 -0.86243528 2.2810001 1.3271496e-38
0.55830193 -0.86243528 2.2810001 1.3731401e-38
0.56264669 -0.86243528 2.2810001 1.4190924e-38
0.56699151 -0.86243528 2.2810001 1.3916842e-38
0.57133621 -0.86243528 2.2810001 1.3734967e-38
0.57568097 -0.86243528 2.2810001 1.3826088e-38
0.58002573 -0.86243528 2.2810001 1.3913973e-38
0.58437049 -0.86243528 2.2810001 1.3732092e-38
0.59284478 -0.8684848 2.2970002 1.35495e-38
0.59722006 -0.8684848 2.2970002 1.3641339e-38
0.60159528 -0.8684848 2.2970002 1.382537e-38
0.60992759 -0.87415618 2.312 1.4008327e-38
0.61433148 -0.87415618 2.312 1.419165e-38
0.61873525 -0.87415618 2.312 1.4007992e-38
0.62313908 -0.87415618 2.312 1.3824307e-38
0.62754285 -0.87415618 2.312 1.3915052e-38
0.63194668 -0.87415618 2.312 1.4006181e-38
0.64047909 -0.87982762 2.3270001 1.3823239e-38
0.64491147 -0.87982762 2.3270001 1.3640633e-38
0.64934385 -0.87982762 2.3270001 1.3548786e-38
0.65377623 -0.87982762 2.3270001 1.3548786e-38
0.65820861 -0.87982762 2.3270001 1.3364758e-38
0.66264099 -0.87982762 2.3270001 1.3180737e-38
0.66707337 -0.87982762 2.3270001 1.3547728e-38
0.66717714 -0.87415618 2.312 1.3823226e-38
0.67158097 -0.87415618 2.312 1.3822861e-38
0.67598474 -0.87415618 2.312 1.3914333e-38
0.68038857 -0.87415618 2.312 1.391433e-38
0.68479234 -0.87415618 2.312 1.4006173e-38
0.69366771 -0.87982762 2.3270001 1.3455526e-38
0.6936 -0.87415618 2.312 1.2905222e-38
0.69800377 -0.87415618 2.312 1.3180363e-38
0.70696479 -0.87982762 2.3270001 1.3547707e-38
0.71139717 -0.87982762 2.3270001 1.3364758e-38
0.71121526 -0.87415618 2.312 1.3274352e-38
0.71561909 -0.87415618 2.312 1.3273629e-38
0.72002286 -0.87415618 2.312 1.3273634e-38
0.72442669 -0.87415618 2.312 1.3089253e-38
0.72883052 -0.87415618 2.312 1.2904144e-38
0.73799145 -0.87982762 2.3270001 1.2995978e-38
0.74242383 -0.87982762 2.3270001 1.308817e-38
0.74685621 -0.87982762 2.3270001 1.345515e-38
0.75128859 -0.87982762 2.3270001 1.3730657e-38
0.75572097 -0.87982762 2.3270001 1.3179645e-38
0.76015341 -0.87982762 2.3270001 1.272047e-38
0.76458579 -0.87982762 2.3270001 1.2904504e-38
0.77430576 -0.88587719 2.3430002 1.3180368e-38
0.77345049 -0.87982762 2.3270001 1.3455514e-38
0.77788287 -0.87982762 2.3270001 1.3639194e-38
0.78231525 -0.87982762 2.3270001 1.3546649e-38
0.78674763 -0.87982762 2.3270001 1.345481e-38
0.79118007 -0.87982762 2.3270001 1.3454805e-38
0.79561245 -0.87982762 2.3270001 1.3546645e-38
0.80004483 -0.87982762 2.3270001 1.3362621e-38
0.81000859 -0.88587719 2.3430002 1.327042e-38
0.81447148 -0.88587719 2.3430002 1.3178936e-38
0.81893432 -0.88587719 2.3430002 1.3087454e-38
0.82339722 -0.88587719 2.3430002 1.345479e-38
0.82786006 -0.88587719 2.3430002 1.3822126e-38
0.83232296 -0.88587719 2.3430002 1.3087078e-38
0.83678573 -0.88587719 2.3430002 1.2447105e-38
0.84124857 -0.88587719 2.3430002 1.2355634e-38
0.84571147 -0.88587719 2.3430002 1.2264514e-38
0.85017431 -0.88587719 2.3430002 1.2538586e-38
0.85463721 -0.88587719 2.3430002 1.2813022e-38
0.85910004 -0.88587719 2.3430002 1.2994546e-38
0.86356294 -0.88587719 2.3430002 1.3178216e-38
0.86802578 -0.88587719 2.3430002 1.3084944e-38
0.87248868 -0.88587719 2.3430002 1.2993452e-38
0.87695152 -0.88587719 2.3430002 1.3086349e-38
0.88141429 -0.88587719 2.3430002 1.3179627e-38
0.88587719 -0.88587719 2.3430002 1.3361154e-38
0.89034003 -0.88587719 2.3430002 1.3543033e-38
0.89480293 -0.88587719 2.3430002 1.3269323e-38
0.89926577 -0.88587719 2.3430002 1.2994529e-38
0.90372866 -0.88587719 2.3430002 1.2810854e-38
0.9081915 -0.88587719 2.3430002 1.2535348e-38
0.91265434 -0.88587719 2.3430002 1.2993809e-38
0.91711724 -0.88587719 2.3430002 1.3543746e-38
0.92158002 -0.88587719 2.3430002 1.3176764e-38
0.92604291 -0.88587719 2.3430002 1.2809784e-38
0.93050575 -0.88587719 2.3430002 1.2533564e-38
0.93496865 -0.88587719 2.3430002 1.2349534e-38
0.93943149 -0.88587719 2.3430002 1.2534641e-38
0.94389433 -0.88587719 2.3430002 1.2719745e-38
0.96171433 -0.89835435 2.3760002 1.2535713e-38
0.95932674 -0.89192671 2.3590002 1.2351674e-38
0.9638201 -0.89192671 2.3590002 1.2442783e-38
0.9683134 -0.89192671 2.3590002 1.2536415e-38
0.97280675 -0.89192671 2.3590002 1.2534985e-38
0.97730005 -0.89192671 2.3590002 1.2535702e-38
0.9817934 -0.89192671 2.3590002 1.2260196e-38
0.9862867 -0.89192671 2.3590002 1.2076169e-38
0.99078006 -0.89192671 2.3590002 1.2258408e-38
0.99527341 -0.89192671 2.3590002 1.2534266e-38
0.99298584 -0.88587719 2.3430002 1.2258036e-38
0.99744862 -0.88587719 2.3430002 1.1981822e-38
1.0019115 -0.88587719 2.3430002 1.225698e-38
1.0063744 -0.88587719 2.3430002 1.2532112e-38
1.0108372 -0.88587719 2.3430002 1.2533173e-38
1.0222334 -0.89192671 2.3590002 1.2532824e-38
1.0267267 -0.89192671 2.3590002 1.2716147e-38
1.0312201 -0.89192671 2.3590002 1.2991645e-38
1.0357134 -0.89192671 2.3590002 1.2809401e-38
1.047703 -0.89835435 2.3760002 1.2627531e-38
1.0522287 -0.89835435 2.3760002 1.2994521e-38
1.0567544 -0.89835435 2.3760002 1.3449032e-38
1.0612801 -0.89835435 2.3760002 1.2897299e-38
1.0658058 -0.89835435 2.3760002 1.2253738e-38
1.0626734 -0.89192671 2.3590002 1.2349526e-38
1.0671668 -0.89192671 2.3590002 1.2532853e-38
1.0793829 -0.89835435 2.3760002 1.1981857e-38
1.0761534 -0.89192671 2.3590002 1.152338e-38
1.0806468 -0.89192671 2.3590002 1.2256973e-38
1.0851401 -0.89192671 2.3590002 1.299237e-38
1.082243 -0.88587719 2.3430002 1.2440637e-38
1.1020114 -0.89835435 2.3760002 1.1982533e-38
1.0986202 -0.89192671 2.3590002 1.1889261e-38
1.0956315 -0.88587719 2.3430002 1.1797788e-38
1.1155885 -0.89835435 2.3760002 1.1796718e-38
1.1201143 -0.89835435 2.3760002 1.1887831e-38
1.1322134 -0.90440387 2.3920002 1.1705234e-38
1.1367697 -0.90440387 2.3920002 1.1430808e-38
1.1413258 -0.90440387 2.3920002 1.1614124e-38
1.145882 -0.90440387 2.3920002 1.1797435e-38
1.1504382 -0.90440387 2.3920002 1.1797434e-38
1.1549944 -0.90440387 2.3920002 1.1798508e-38
1.1595505 -0.90440387 2.3920002 1.1797791e-38
1.17238 -0.91083145 2.4090002 1.1889987e-38
1.1686629 -0.90440387 2.3920002 1.1888913e-38
1.1815573 -0.91083145 2.4090002 1.1796722e-38
1.1861458 -0.91083145 2.4090002 1.1888562e-38
1.1907344 -0.91083145 2.4090002 1.1980384e-38
1.195323 -0.91083145 2.4090002 1.1980372e-38
1.1999115 -0.91083145 2.4090002 1.207221e-38
1.2130001 -0.9172591 2.4260001 1.1888543e-38
1.217621 -0.9172591 2.4260001 1.1705227e-38
1.2222419 -0.9172591 2.4260001 1.1430075e-38
1.2268629 -0.9172591 2.4260001 1.1155649e-38
1.2314839 -0.9172591 2.4260001 1.1337172e-38
1.2361047 -0.9172591 2.4260001 1.151941e-38
1.2407258 -0.9172591 2.4260001 1.188819e-38
1.2453467 -0.9172591 2.4260001 1.2256966e-38
1.2499677 -0.9172591 2.4260001 1.1981817e-38
1.2545887 -0.9172591 2.4260001 1.1615191e-38
1.2592095 -0.9172591 2.4260001 1.1703796e-38
1.2638305 -0.9172591 2.4260001 1.1888542e-38
1.2684515 -0.9172591 2.4260001 1.170523e-38
1.2730725 -0.9172591 2.4260001 1.1521909e-38
1.2776934 -0.9172591 2.4260001 1.1062723e-38
1.2823143 -0.9172591 2.4260001 1.0603914e-38
1.2869353 -0.9172591 2.4260001 1.1154578e-38
1.3006067 -0.92368668 2.4430001 1.1613396e-38
1.3052601 -0.92368668 2.4430001 1.1519408e-38
1.3099134 -0.92368668 2.4430001 1.1428285e-38
-0.89424002 -0.56880003 1.5120001 1.7695467e-38
-0.89136004 -0.56880003 1.5120001 1.80628e-38
-0.89259332 -0.57143331 1.5190001 1.8429423e-38
-0.89731431 -0.57632381 1.5320001 1.7970603e-38
-0.89848286 -0.57895714 1.539 1.7511426e-38
-0.89962482 -0.58159053 1.5460001 1.741995e-38
-0.89668006 -0.58159053 1.5460001 1.7419952e-38
-0.89778197 -0.58422387 1.5530001 1.7421029e-38
-0.89885718 -0.58685714 1.5600001 1.7420671e-38
-0.90392578 -0.59212387 1.5740001 1.7420312e-38
-0.90092766 -0.59212387 1.5740001 1.7418161e-38
-0.89792955 -0.59212387 1.5740001 1.7325611e-38
-0.90346003 -0.5977667 1.5890001 1.7326681e-38
-0.90836668 -0.6030333 1.603 1.7327753e-38
-0.90531337 -0.6030333 1.603 1.7325958e-38
-0.91070288 -0.6086762 1.618 1.7233763e-38
-0.90762097 -0.6086762 1.618 1.7235915e-38
-0.90901142 -0.61168575 1.626 1.7136189e-38
-0.90591431 -0.61168575 1.626 1.7050809e-38
-0.90281713 -0.61168575 1.626 1.696005e-38
-0.89972001 -0.61168575 1.626 1.6866781e-38
-0.90103436 -0.61469531 1.6340001 1.6407606e-38
-0.89792192 -0.61469531 1.6340001 1.6039904e-38
-0.89864284 -0.61732858 1.641 1.649908e-38
-0.89988285 -0.62033814 1.649 1.7050452e-38
-0.90109241 -0.62334764 1.6570001 1.7143005e-38
-0.89793617 -0.62334764 1.6570001 1.7233758e-38
-0.89478004 -0.62334764 1.6570001 1.7508902e-38
-0.8916238 -0.62334764 1.6570001 1.7876603e-38
-0.88846767 -0.62334764 1.6570001 1.760002e-38
-0.88958579 -0.6263572 1.6650001 1.7324872e-38
-0.89493245 -0.63237625 1.6810001 1.714192e-38
-0.89173055 -0.63237625 1.6810001 1.7049015e-38
-0.89328569 -0.63576192 1.6900001 1.6955752e-38
-0.89849335 -0.64178097 1.7060001 1.6958972e-38
-0.89524382 -0.64178097 1.7060001 1.6407594e-38
-0.89670002 -0.64516664 1.715 1.5856582e-38
-0.89760095 -0.64817619 1.723 1.6224284e-38
-0.89431906 -0.64817619 1.723 1.6681306e-38
-0.89569151 -0.65156192 1.7320001 1.6679153e-38
-0.89702958 -0.65494764 1.7410001 1.6773858e-38
-0.89833337 -0.65833336 1.7500001 1.6499428e-38
-0.89960283 -0.66171908 1.7590001 1.6223564e-38
-0.89625245 -0.66171908 1.7590001 1.6406876e-38
-0.89747053 -0.66510481 1.7680001 1.6680229e-38
-0.89410287 -0.66510481 1.7680001 1.6956453e-38
-0.89526951 -0.66849053 1.7770001 1.7323435e-38
-0.8918848 -0.66849053 1.7770001 1.7047568e-38
-0.89300007 -0.67187619 1.7860001 1.6863897e-38
-0.894081 -0.67526191 1.7950001 1.6680583e-38
-0.89066195 -0.67526191 1.7950001 1.658803e-38
-0.89169151 -0.6786477 1.8040001 1.5944822e-38
-0.8882553 -0.6786477 1.8040001 1.5302332e-38
-0.89462858 -0.68617147 1.8240001 1.6037375e-38
-0.89115429 -0.68617147 1.8240001 1.6771699e-38
-0.89206004 -0.68955719 1.8330001 1.6679503e-38
-0.88856858 -0.68955719 1.8330001 1.6587307e-38
-0.88507718 -0.68955719 1.8330001 1.6678781e-38
-0.88639528 -0.69331908 1.8430001 1.6862456e-38
-0.88767523 -0.69708097 1.853 1.6769549e-38
-0.88414574 -0.69708097 1.853 1.6677705e-38
-0.88061619 -0.69708097 1.853 1.5667508e-38
-0.88182002 -0.70084286 1.863 1.4748427e-38
-0.8782714 -0.70084286 1.863 1.4655867e-38
-0.8747229 -0.70084286 1.863 1.4655505e-38
-0.87585056 -0.7046048 1.8730001 1.4562232e-38
-0.87694001 -0.70836669 1.8830001 1.456187e-38
-0.87845528 -0.71250474 1.8940001 1.456151e-38
-0.87946665 -0.71626669 1.904 1.4652634e-38
-0.87584001 -0.71626669 1.904 1.4467535e-38
-0.8772524 -0.7204048 1.9150001 1.4283504e-38
-0.87360477 -0.7204048 1.9150001 1.4559009e-38
-0.86995715 -0.7204048 1.9150001 1.4838452e-38
-0.8708334 -0.72416663 1.9250001 1.4838801e-38
-0.87212193 -0.7283048 1.9360001 1.4839166e-38
-0.87336862 -0.73244292 1.9470001 1.5023202e-38
-0.86966008 -0.73244292 1.9470001 1.5299081e-38
-0.86595148 -0.73244292 1.9470001 1.5115781e-38
-0.86224288 -0.73244292 1.9470001 1.4932824e-38
-0.85853434 -0.73244292 1.9470001 1.5301238e-38
-0.85482579 -0.73244292 1.9470001 1.5667859e-38
-0.85592574 -0.73658097 1.9580001 1.6218511e-38
-0.85219622 -0.73658097 1.9580001 1.6859208e-38
-0.84846669 -0.73658097 1.9580001 1.6124886e-38
-0.84473711 -0.73658097 1.9580001 1.548202e-38
-0.84100765 -0.73658097 1.9580001 1.5574557e-38
-0.83727813 -0.73658097 1.9580001 1.5662813e-38
-0.83354855 -0.73658097 1.9580001 1.4835586e-38
-0.83448094 -0.74071908 1.9690001 1.400799e-38
-0.8307305 -0.74071908 1.9690001 1.4006916e-38
-0.82698005 -0.74071908 1.9690001 1.4006907e-38
-0.82782859 -0.74485719 1.9800001 1.3914346e-38
-0.82405722 -0.74485719 1.9800001 1.3823228e-38
-0.82028574 -0.74485719 1.9800001 1.4191289e-38
-0.81651437 -0.74485719 1.9800001 1.4651181e-38
-0.81274289 -0.74485719 1.9800001 1.4095502e-38
-0.80897146 -0.74485719 1.9800001 1.3545206e-38
-0.81008005 -0.74937147 1.9920001 1.2995271e-38
-0.80628574 -0.74937147 1.9920001 1.2444262e-38
-0.80249143 -0.74937147 1.9920001 1.2903802e-38
-0.79869717 -0.74937147 1.9920001 1.3454821e-38
-0.79490292 -0.74937147 1.9920001 1.3913645e-38
-0.79110861 -0.74937147 1.9920001 1.437353e-38
-0.78731436 -0.74937147 1.9920001 1.3362971e-38
-0.78352004 -0.74937147 1.9920001 1.2352419e-38
-0.77972573 -0.74937147 1.9920001 1.2995266e-38
-0.77593142 -0.74937147 1.9920001 1.363776e-38
-0.77213717 -0.74937147 1.9920001 1.3637765e-38
-0.76834291 -0.74937147 1.9920001 1.3638471e-38
-0.76877046 -0.75350952 2.003 1.3546626e-38
-0.76495522 -0.75350952 2.003 1.3455157e-38
-0.75696003 -0.74937147 1.9920001 1.3637402e-38
-0.75316572 -0.74937147 1.9920001 1.3821071e-38
-0.74937147 -0.74937147 1.9920001 1.3545563e-38
-0.74969429 -0.75350952 2.003 1.3362966e-38
-0.7417829 -0.74937147 1.9920001 1.3362604e-38
-0.74206382 -0.75350952 2.003 1.3455159e-38
-0.73824859 -0.75350952 2.003 1.3271849e-38
-0.73443335 -0.75350952 2.003 1.3180015e-38
-0.73061806 -0.75350952 2.003 1.3272212e-38
-0.72680283 -0.75350952 2.003 1.3454805e-38
-0.72298765 -0.75350952 2.003 1.2811956e-38
-0.71917236 -0.75350952 2.003 1.2261301e-38
-0.71535712 -0.75350952 2.003 1.290451e-38
-0.71154189 -0.75350952 2.003 1.3639191e-38
-0.70772672 -0.75350952 2.003 1.3455519e-38
-0.70391142 -0.75350952 2.003 1.3271132e-38
-0.70009619 -0.75350952 2.003 1.3362252e-38
-0.69628096 -0.75350952 2.003 1.3454447e-38
-0.69246572 -0.75350952 2.003 1.3546641e-38
-0.68865049 -0.75350952 2.003 1.3638828e-38
-0.68893808 -0.75802386 2.0150001 1.3639539e-38
-0.68510002 -0.75802386 2.0150001 1.3730668e-38
-0.6812619 -0.75802386 2.0150001 1.3913634e-38
-0.67742383 -0.75802386 2.0150001 1.409765e-38
-0.66957426 -0.75350952 2.003 1.3822488e-38
-0.66575903 -0.75350952 2.003 1.3638827e-38
-0.66590953 -0.75802386 2.0150001 1.3822866e-38
-0.66207147 -0.75802386 2.0150001 1.4098362e-38
-0.65823334 -0.75802386 2.0150001 1.3454786e-38
-0.65439528 -0.75802386 2.0150001 1.290378e-38
-0.65055716 -0.75802386 2.0150001 1.3546637e-38
-0.6467191 -0.75802386 2.0150001 1.4281322e-38
-0.64288098 -0.75802386 2.0150001 1.391434e-38
-0.63904291 -0.75802386 2.0150001 1.3638831e-38
-0.63520479 -0.75802386 2.0150001 1.3547351e-38
-0.63136673 -0.75802386 2.0150001 1.3455159e-38
-0.62752861 -0.75802386 2.0150001 1.3729949e-38
-0.62740481 -0.76253819 2.0270002 1.4005804e-38
-0.62354386 -0.76253819 2.0270002 1.3271469e-38
-0.61968291 -0.76253819 2.0270002 1.2536802e-38
-0.61582196 -0.76253819 2.0270002 1.290416e-38
-0.61196101 -0.76253819 2.0270002 1.3363333e-38
-0.60450006 -0.75802386 2.0150001 1.3271493e-38
-0.60423911 -0.76253819 2.0270002 1.3271132e-38
-0.6003781 -0.76253819 2.0270002 1.3271127e-38
-0.59651721 -0.76253819 2.0270002 1.3362597e-38
-0.59616476 -0.76705241 2.039 1.3821768e-38
-0.59228098 -0.76705241 2.039 1.4280951e-38
-0.58839715 -0.76705241 2.039 1.3270766e-38
-0.58451337 -0.76705241 2.039 1.2260227e-38
-0.58062953 -0.76705241 2.039 1.262722e-38
-0.57674569 -0.76705241 2.039 1.3086396e-38
-0.57286191 -0.76705241 2.039 1.2994919e-38
-0.56897807 -0.76705241 2.039 1.2995631e-38
-0.56509429 -0.76705241 2.039 1.3180374e-38
-0.56121045 -0.76705241 2.039 1.3455517e-38
-0.55732667 -0.76705241 2.039 1.3363679e-38
-0.55344284 -0.76705241 2.039 1.3271489e-38
-0.54955906 -0.76705241 2.039 1.3547001e-38
-0.54567522 -0.76705241 2.039 1.3914333e-38
-0.54179138 -0.76705241 2.039 1.3546983e-38
-0.53790766 -0.76705241 2.039 1.3271838e-38
-0.53402382 -0.76705241 2.039 1.3272201e-38
-0.53014004 -0.76705241 2.039 1.3272205e-38
-0.5262562 -0.76705241 2.039 1.3180375e-38
-0.52237242 -0.76705241 2.039 1.3088181e-38
-0.51848859 -0.76705241 2.039 1.2904151e-38
-0.51763332 -0.77156669 2.0510001 1.2812321e-38
-0.51072097 -0.76705241 2.039 1.3088194e-38
-0.50683713 -0.76705241 2.039 1.3455171e-38
-0.50591338 -0.77156669 2.0510001 1.3546644e-38
-0.50200671 -0.77156669 2.0510001 1.3638474e-38
-0.49810001 -0.77156669 2.0510001 1.3362604e-38
-0.49419335 -0.77156669 2.0510001 1.3178574e-38
-0.49028668 -0.77156669 2.0510001 1.2994545e-38
-0.48638004 -0.77156669 2.0510001 1.2902715e-38
-0.48247334 -0.77156669 2.0510001 1.2994916e-38
-0.47856668 -0.77156669 2.0510001 1.3088538e-38
-0.47466004 -0.77156669 2.0510001 1.2996696e-38
-0.47075334 -0.77156669 2.0510001 1.29045e-38
-0.46684667 -0.77156669 2.0510001 1.2812663e-38
-0.46294004 -0.77156669 2.0510001 1.2812667e-38
-0.45903334 -0.77156669 2.0510001 1.2996703e-38
-0.45512667 -0.77156669 2.0510001 1.3271855e-38
-0.45122004 -0.77156669 2.0510001 1.2995275e-38
-0.44993049 -0.77608103 2.0630002 1.2719764e-38
-0.44600099 -0.77608103 2.0630002 1.2995625e-38
-0.44207147 -0.77608103 2.0630002 1.3271134e-38
-0.43814194 -0.77608103 2.0630002 1.3179303e-38
-0.43421242 -0.77608103 2.0630002 1.3179296e-38
-0.43028292 -0.77608103 2.0630002 1.3179649e-38
-0.42635337 -0.77608103 2.0630002 1.3271488e-38
-0.42242384 -0.77608103 2.0630002 1.345552e-38
-0.41849431 -0.77608103 2.0630002 1.3730662e-38
-0.41456479 -0.77608103 2.0630002 1.3912534e-38
-0.41063529 -0.77608103 2.0630002 1.4188403e-38
-0.40926862 -0.78097147 2.0760002 1.3729587e-38
-0.40531433 -0.78097147 2.0760002 1.3364043e-38
-0.40136003 -0.78097147 2.0760002 1.3271136e-38
-0.39740574 -0.78097147 2.0760002 1.3270774e-38
-0.39345148 -0.78097147 2.0760002 1.3821786e-38
-0.38949719 -0.78097147 2.0760002 1.4466791e-38
-0.3855429 -0.78097147 2.0760002 1.3826099e-38
-0.38158861 -0.78097147 2.0760002 1.3182162e-38
-0.37763432 -0.78097147 2.0760002 1.3272908e-38
-0.37368003 -0.78097147 2.0760002 1.3364028e-38
-0.36972573 -0.78097147 2.0760002 1.3087448e-38
-0.36577144 -0.78097147 2.0760002 1.2904494e-38
-0.36181718 -0.78097147 2.0760002 1.3180718e-38
-0.35993144 -0.78548574 2.0880001 1.354734e-38
-0.35595429 -0.78548574 2.0880001 1.354698e-38
-0.35197717 -0.78548574 2.0880001 1.3638469e-38
-0.34600005 -0.78097147 2.0760002 1.3545929e-38
-0.34204575 -0.78097147 2.0760002 1.3545923e-38
-0.34004572 -0.78548574 2.0880001 1.345444e-38
-0.33606857 -0.78548574 2.0880001 1.3362244e-38
-0.33209145 -0.78548574 2.0880001 1.3821061e-38
-0.32622862 -0.78097147 2.0760002 1.4372802e-38
-0.32413715 -0.78548574 2.0880001 1.3914712e-38
-0.32016 -0.78548574 2.0880001 1.3547361e-38
-0.31618285 -0.78548574 2.0880001 1.3364041e-38
-0.31220573 -0.78548574 2.0880001 1.3272561e-38
-0.30822858 -0.78548574 2.0880001 1.3455512e-38
-0.30425143 -0.78548574 2.0880001 1.3638462e-38
-0.30027428 -0.78548574 2.0880001 1.4281307e-38
-0.29629713 -0.78548574 2.0880001 1.5016354e-38
-0.29232001 -0.78548574 2.0880001 1.4190554e-38
-0.28834286 -0.78548574 2.0880001 1.3363676e-38
-0.28436571 -0.78548574 2.0880001 1.3271482e-38
-0.28038859 -0.78548574 2.0880001 1.3271492e-38
-0.27641141 -0.78548574 2.0880001 1.3363338e-38
-0.27243429 -0.78548574 2.0880001 1.3547001e-38
-0.26845714 -0.78548574 2.0880001 1.327077e-38
-0.26447999 -0.78548574 2.0880001 1.2997053e-38
-0.26050287 -0.78548574 2.0880001 1.3180004e-38
-0.25812286 -0.79037619 2.1010001 1.336333e-38
-0.25412095 -0.79037619 2.1010001 1.3271509e-38
-0.25011903 -0.79037619 2.1010001 1.3179665e-38
-0.24611714 -0.79037619 2.1010001 1.3730671e-38
-0.24211524 -0.79037619 2.1010001 1.4374234e-38
-0.23811334 -0.79037619 2.1010001 1.391613e-38
-0.23411143 -0.79037619 2.1010001 1.3547706e-38
-0.23010953 -0.79037619 2.1010001 1.3822849e-38
-0.22610763 -0.79037619 2.1010001 1.4098001e-38
-0.22210573 -0.79037619 2.1010001 1.3638827e-38
-0.21810381 -0.79037619 2.1010001 1.3179649e-38
-0.21410191 -0.79037619 2.1010001 1.3180009e-38
-0.21010001 -0.79037619 2.1010001 1.3272561e-38
-0.20609809 -0.79037619 2.1010001 1.3273278e-38
-0.20209619 -0.79037619 2.1010001 1.3272915e-38
-0.19932 -0.79526669 2.1140001 1.3548418e-38
-0.19409239 -0.79037619 2.1010001 1.3915048e-38
-0.19009048 -0.79037619 2.1010001 1.3731384e-38
-0.18608858 -0.79037619 2.1010001 1.3638834e-38
-0.18321334 -0.79526669 2.1140001 1.3637762e-38
-0.17808478 -0.79037619 2.1010001 1.3730305e-38
-0.17408286 -0.79037619 2.1010001 1.3546983e-38
-0.17113334 -0.79526669 2.1140001 1.3455152e-38
-0.16710667 -0.79526669 2.1140001 1.299598e-38
-0.16308001 -0.79526669 2.1140001 1.2537525e-38
-0.15905334 -0.79526669 2.1140001 1.3364049e-38
-0.15598001 -0.80015719 2.1270001 1.4190557e-38
-0.15192857 -0.80015719 2.1270001 1.3455145e-38
-0.14787716 -0.80015719 2.1270001 1.2721184e-38
-0.14294668 -0.79526669 2.1140001 1.3088891e-38
-0.13977428 -0.80015719 2.1270001 1.3455879e-38
-0.13572286 -0.80015719 2.1270001 1.3914702e-38
-0.13086666 -0.79526669 2.1140001 1.4373159e-38
-0.12684001 -0.79526669 2.1140001 1.4005814e-38
-0.12281334 -0.79526669 2.1140001 1.3639906e-38
-0.11951715 -0.80015719 2.1270001 1.3639185e-38
-0.11546572 -0.80015719 2.1270001 1.3730668e-38
-0.11141429 -0.80015719 2.1270001 1.3638837e-38
-0.10736286 -0.80015719 2.1270001 1.3638839e-38
-0.10331143 -0.80015719 2.1270001 1.3274011e-38
-0.099866673 -0.80504763 2.1400001 1.2997417e-38
-0.095790476 -0.80504763 2.1400001 1.3272197e-38
-0.091714285 -0.80504763 2.1400001 1.3640616e-38
-0.087638095 -0.80504763 2.1400001 1.3273993e-38
-0.083561912 -0.80504763 2.1400001 1.2997413e-38
-0.079485722 -0.80504763 2.1400001 1.3184674e-38
-0.075409524 -0.80504763 2.1400001 1.3456949e-38
-0.071333334 -0.80504763 2.1400001 1.3548066e-38
-0.067257144 -0.80504763 2.1400001 1.3639904e-38
-0.063180953 -0.80504763 2.1400001 1.3639906e-38
-0.059104763 -0.80504763 2.1400001 1.3731743e-38
-0.055028573 -0.80504763 2.1400001 1.3823938e-38
-0.051261909 -0.80993813 2.1530001 1.3917566e-38
-0.046876192 -0.80504763 2.1400001 1.4374231e-38
-0.042800002 -0.80504763 2.1400001 1.4833766e-38
-0.038723812 -0.80504763 2.1400001 1.4099799e-38
-0.034647621 -0.80504763 2.1400001 1.3456591e-38
-0.030571431 -0.80504763 2.1400001 1.3456591e-38
-0.026656192 -0.80993813 2.1530001 1.3456239e-38
-0.022555238 -0.80993813 2.1530001 1.3456247e-38
-0.018454287 -0.80993813 2.1530001 1.3456233e-38
-0.014353334 -0.80993813 2.1530001 1.2905924e-38
-0.010252381 -0.80993813 2.1530001 1.2446755e-38
-0.0061514289 -0.80993813 2.1530001 1.2814104e-38
-0.0020504764 -0.80993813 2.1530001 1.3181446e-38
0.0020638097 -0.8152048 2.1670001 1.3365118e-38
0.0061914288 -0.8152048 2.1670001 1.3640264e-38
0.010319048 -0.8152048 2.1670001 1.3639904e-38
0.014446667 -0.8152048 2.1670001 1.3639547e-38
0.018574286 -0.8152048 2.1670001 1.3915055e-38
0.022701904 -0.8152048 2.1670001 1.419056e-38
0.026829524 -0.8152048 2.1670001 1.400653e-38
0.030957144 -0.8152048 2.1670001 1.3915778e-38
0.035084762 -0.8152048 2.1670001 1.3916145e-38
0.03921238 -0.8152048 2.1670001 1.4007615e-38
0.043340001 -0.8152048 2.1670001 1.3822861e-38
0.047467619 -0.8152048 2.1670001 1.3731744e-38
0.051595241 -0.8152048 2.1670001 1.3548793e-38
0.055362862 -0.80993813 2.1530001 1.3457311e-38
0.059463814 -0.80993813 2.1530001 1.3549498e-38
0.063978098 -0.8152048 2.1670001 1.3641338e-38
0.068105713 -0.8152048 2.1670001 1.4283832e-38
0.071766667 -0.80993813 2.1530001 1.4925605e-38
0.076360956 -0.8152048 2.1670001 1.4465355e-38
0.08048857 -0.8152048 2.1670001 1.409801e-38
0.084616192 -0.8152048 2.1670001 1.400653e-38
0.088743806 -0.8152048 2.1670001 1.391577e-38
0.093471423 -0.82047141 2.181 1.3640622e-38
0.09762571 -0.82047141 2.181 1.3456954e-38
0.10178 -0.82047141 2.181 1.3455882e-38
0.10593428 -0.82047141 2.181 1.3456246e-38
0.11008857 -0.82047141 2.181 1.3458047e-38
0.11424286 -0.82047141 2.181 1.3549874e-38
0.11839715 -0.82047141 2.181 1.3642061e-38
0.12255143 -0.82047141 2.181 1.3824654e-38
0.12670571 -0.82047141 2.181 1.373246e-38
0.13086 -0.82047141 2.181 1.3732103e-38
0.13414763 -0.8152048 2.1670001 1.3915777e-38
0.13827525 -0.8152048 2.1670001 1.4191279e-38
0.14332286 -0.82047141 2.181 1.3824291e-38
0.14747714 -0.82047141 2.181 1.3549141e-38
0.15253524 -0.82536191 2.194 1.3364751e-38
0.15671429 -0.82536191 2.194 1.3180721e-38
0.16089334 -0.82536191 2.194 1.3546628e-38
0.16507238 -0.82536191 2.194 1.3915414e-38
0.17033145 -0.83062863 2.2080002 1.4008692e-38
0.17453715 -0.83062863 2.2080002 1.4099805e-38
0.17874287 -0.83062863 2.2080002 1.3915771e-38
0.18294857 -0.83062863 2.2080002 1.3823938e-38
0.18715431 -0.83062863 2.2080002 1.3916135e-38
0.19136001 -0.83062863 2.2080002 1.4099442e-38
0.19556573 -0.83062863 2.2080002 1.3548425e-38
0.19850476 -0.82536191 2.194 1.2999563e-38
0.20268381 -0.82536191 2.194 1.3275066e-38
0.20686285 -0.82536191 2.194 1.3550577e-38
0.2110419 -0.82536191 2.194 1.3550581e-38
0.21522094 -0.82536191 2.194 1.3550576e-38
0.21939999 -0.82536191 2.194 1.3731729e-38
0.22357903 -0.82536191 2.194 1.4007967e-38
0.22775809 -0.82536191 2.194 1.4013362e-38
0.23193714 -0.82536191 2.194 1.4099448e-38
0.23762289 -0.83062863 2.2080002 1.409836e-38
0.24182858 -0.83062863 2.2080002 1.4191275e-38
0.24603431 -0.83062863 2.2080002 1.4100878e-38
0.25024 -0.83062863 2.2080002 1.410088e-38
0.25444573 -0.83062863 2.2080002 1.4192001e-38
0.26040858 -0.83627146 2.223 1.4283477e-38
0.26285717 -0.83062863 2.2080002 1.4283477e-38
0.26706287 -0.83062863 2.2080002 1.4282405e-38
0.27311143 -0.83627146 2.223 1.409802e-38
0.27734572 -0.83627146 2.223 1.3915415e-38
0.28158 -0.83627146 2.223 1.3915764e-38
0.28581429 -0.83627146 2.223 1.4007606e-38
0.29004857 -0.83627146 2.223 1.428312e-38
0.29428285 -0.83627146 2.223 1.456042e-38
0.29851714 -0.83627146 2.223 1.4193438e-38
0.30275142 -0.83627146 2.223 1.382431e-38
0.30698574 -0.83627146 2.223 1.3824317e-38
0.31121999 -0.83627146 2.223 1.3825746e-38
0.31744093 -0.84153807 2.237 1.3825382e-38
0.32170188 -0.84153807 2.237 1.382502e-38
0.32596284 -0.84153807 2.237 1.4008331e-38
0.3302238 -0.84153807 2.237 1.4191643e-38
0.33672765 -0.84718096 2.2520001 1.4191643e-38
0.34101716 -0.84718096 2.2520001 1.4192359e-38
0.34530669 -0.84718096 2.2520001 1.41016e-38
0.3495962 -0.84718096 2.2520001 1.4101248e-38
0.35388574 -0.84718096 2.2520001 1.3549885e-38
0.35817525 -0.84718096 2.2520001 1.2998506e-38
0.36005047 -0.84153807 2.237 1.3549512e-38
0.36675429 -0.84718096 2.2520001 1.4192359e-38
0.3710438 -0.84718096 2.2520001 1.4100881e-38
0.37533334 -0.84718096 2.2520001 1.4009047e-38
0.37962285 -0.84718096 2.2520001 1.4009048e-38
0.38391238 -0.84718096 2.2520001 1.400833e-38
0.38820192 -0.84718096 2.2520001 1.3916134e-38
0.39493144 -0.85244763 2.266 1.3826448e-38
0.39924762 -0.85244763 2.266 1.3459103e-38
0.4035638 -0.85244763 2.266 1.309104e-38
0.40788001 -0.85244763 2.266 1.3458017e-38
0.41219619 -0.85244763 2.266 1.3825365e-38
0.4165124 -0.85244763 2.266 1.3825729e-38
0.42082855 -0.85244763 2.266 1.391757e-38
0.42514476 -0.85244763 2.266 1.3917576e-38
0.42946097 -0.85244763 2.266 1.4007974e-38
0.43377715 -0.85244763 2.266 1.4006537e-38
0.43538666 -0.84718096 2.2520001 1.4006902e-38
0.43967623 -0.84718096 2.2520001 1.409946e-38
0.44396573 -0.84718096 2.2520001 1.4284196e-38
0.45104191 -0.85244763 2.266 1.4375662e-38
0.45535809 -0.85244763 2.266 1.4559698e-38
0.4596743 -0.85244763 2.266 1.4284556e-38
0.46399048 -0.85244763 2.266 1.4100171e-38
0.46830669 -0.85244763 2.266 1.4099816e-38
0.47575146 -0.85809052 2.2810001 1.4191647e-38
0.48009622 -0.85809052 2.2810001 1.3916497e-38
0.48125523 -0.85244763 2.266 1.364063e-38
0.48557144 -0.85244763 2.266 1.4007612e-38
0.48988762 -0.85244763 2.266 1.4466795e-38
0.49420381 -0.85244763 2.266 1.4008339e-38
0.49851999 -0.85244763 2.266 1.3640629e-38
0.50283623 -0.85244763 2.266 1.3823931e-38
0.50715238 -0.85244763 2.266 1.4099082e-38
0.51146853 -0.85244763 2.266 1.4282757e-38
0.51919907 -0.85809052 2.2810001 1.4557908e-38
0.52354383 -0.85809052 2.2810001 1.4282045e-38
0.5278886 -0.85809052 2.2810001 1.4099096e-38
0.53223336 -0.85809052 2.2810001 1.4008698e-38
0.53657812 -0.85809052 2.2810001 1.3915415e-38
0.54092288 -0.85809052 2.2810001 1.3822133e-38
0.54526764 -0.85809052 2.2810001 1.3825007e-38
0.55346769 -0.86410958 2.2970002 1.3640623e-38
0.55784291 -0.86410958 2.2970002 1.345624e-38
0.56221813 -0.86410958 2.2970002 1.3731394e-38
0.56659335 -0.86410958 2.2970002 1.4006895e-38
0.57096857 -0.86410958 2.2970002 1.3915411e-38
0.57534385 -0.86410958 2.2970002 1.3823577e-38
0.57971907 -0.86410958 2.2970002 1.3915774e-38
0.58409435 -0.86410958 2.2970002 1.4007246e-38
0.58846956 -0.86410958 2.2970002 1.3915049e-38
0.59284478 -0.86410958 2.2970002 1.3915409e-38
0.59722006 -0.86410958 2.2970002 1.391613e-38
0.60159528 -0.86410958 2.2970002 1.4007606e-38
0.60992759 -0.86975235 2.312 1.4007249e-38
0.61433148 -0.86975235 2.312 1.4007256e-38
0.61873525 -0.86975235 2.312 1.3915428e-38
0.62313908 -0.86975235 2.312 1.3823942e-38
0.62754285 -0.86975235 2.312 1.3730306e-38
0.63194668 -0.86975235 2.312 1.3730313e-38
0.64047909 -0.87539524 2.3270001 1.3546292e-38
0.64491147 -0.87539524 2.3270001 1.3364765e-38
0.64515811 -0.86975235 2.312 1.3364398e-38
0.65377623 -0.87539524 2.3270001 1.3455875e-38
0.65820861 -0.87539524 2.3270001 1.3639546e-38
0.66264099 -0.87539524 2.3270001 1.382358e-38
0.66707337 -0.87539524 2.3270001 1.3916497e-38
0.66717714 -0.86975235 2.312 1.4099445e-38
0.67158097 -0.86975235 2.312 1.4006169e-38
0.67598474 -0.86975235 2.312 1.400616e-38
0.68480289 -0.87539524 2.3270001 1.3822841e-38
0.68923527 -0.87539524 2.3270001 1.363954e-38
0.69366771 -0.87539524 2.3270001 1.3088896e-38
0.69810003 -0.87539524 2.3270001 1.253752e-38
0.70253241 -0.87539524 2.3270001 1.3180007e-38
0.70696479 -0.87539524 2.3270001 1.3823573e-38
0.71139717 -0.87539524 2.3270001 1.3549144e-38
0.71582955 -0.87539524 2.3270001 1.3365468e-38
0.72026193 -0.87539524 2.3270001 1.3365824e-38
0.72469431 -0.87539524 2.3270001 1.3365108e-38
0.72912675 -0.87539524 2.3270001 1.2538233e-38
0.73355907 -0.87539524 2.3270001 1.1803186e-38
0.73799145 -0.87539524 2.3270001 1.2262001e-38
0.74242383 -0.87539524 2.3270001 1.2813015e-38
0.74685621 -0.87539524 2.3270001 1.2996687e-38
0.75128859 -0.87539524 2.3270001 1.3179282e-38
0.75572097 -0.87539524 2.3270001 1.3087447e-38
0.76538002 -0.88141429 2.3430002 1.2995615e-38
0.76984292 -0.88141429 2.3430002 1.3178572e-38
0.77430576 -0.88141429 2.3430002 1.3362603e-38
0.7787686 -0.88141429 2.3430002 1.3363322e-38
0.7832315 -0.88141429 2.3430002 1.3454801e-38
0.78769433 -0.88141429 2.3430002 1.3362969e-38
0.79215723 -0.88141429 2.3430002 1.327113e-38
0.79662001 -0.88141429 2.3430002 1.299598e-38
0.80108291 -0.88141429 2.3430002 1.2720119e-38
0.80554575 -0.88141429 2.3430002 1.2903435e-38
0.81000859 -0.88141429 2.3430002 1.3087102e-38
0.81447148 -0.88141429 2.3430002 1.3086022e-38
0.81893432 -0.88141429 2.3430002 1.3087093e-38
0.82339722 -0.88141429 2.3430002 1.3638818e-38
0.82786006 -0.88141429 2.3430002 1.4189829e-38
0.83232296 -0.88141429 2.3430002 1.3271829e-38
0.83678573 -0.88141429 2.3430002 1.2445674e-38
0.84124857 -0.88141429 2.3430002 1.2174118e-38
0.84571147 -0.88141429 2.3430002 1.1989728e-38
0.85017431 -0.88141429 2.3430002 1.2356709e-38
0.85463721 -0.88141429 2.3430002 1.2811586e-38
0.85910004 -0.88141429 2.3430002 1.2994901e-38
0.86356294 -0.88141429 2.3430002 1.3270051e-38
0.8739534 -0.88743335 2.3590002 1.2993114e-38
0.87844676 -0.88743335 2.3590002 1.2717954e-38
0.88294005 -0.88743335 2.3590002 1.2993448e-38
0.88141429 -0.88141429 2.3430002 1.3270034e-38
0.88587719 -0.88141429 2.3430002 1.3456578e-38
0.89034003 -0.88141429 2.3430002 1.3727787e-38
0.90091342 -0.88743335 2.3590002 1.3268616e-38
0.89926577 -0.88141429 2.3430002 1.290162e-38
0.90372866 -0.88141429 2.3430002 1.2534626e-38
0.9081915 -0.88141429 2.3430002 1.2258764e-38
