# .PCD v0.7 - Point Cloud Data file format
VERSION 0.7
FIELDS x y z rgb
SIZE 4 4 4 4
TYPE F F F F
COUNT 1 1 1 1
WIDTH 990
HEIGHT 1
VIEWPOINT 0 0 0 0 1 0 0
POINTS 990
DATA ascii
-0.44889429 -0.35215715 0.89100003 1.5648118e-39
-0.44719714 -0.35215715 0.89100003 1.6570046e-39
-0.44550002 -0.35215715 0.89100003 1.7484912e-39
-0.44380286 -0.35215715 0.89100003 1.6559494e-39
-0.44210574 -0.35215715 0.89100003 1.5648146e-39
-0.44040859 -0.35215715 0.89100003 1.5647978e-39
-0.43871143 -0.35215715 0.89100003 1.6566389e-39
-0.43701431 -0.35215715 0.89100003 1.5658852e-39
-0.43531716 -0.35215715 0.89100003 1.5648048e-39
-0.43362001 -0.35215715 0.89100003 1.5648006e-39
-0.43192285 -0.35215715 0.89100003 1.5648034e-39
-0.43022573 -0.35215715 0.89100003 1.9325069e-39
-0.42852858 -0.35215715 0.89100003 2.2998503e-39
-0.42587334 -0.3513667 0.88900006 2.2080148e-39
-0.42418003 -0.3513667 0.88900006 2.2080218e-39
-0.42248669 -0.3513667 0.88900006 1.9325209e-39
-0.42079335 -0.3513667 0.88900006 1.7492114e-39
-0.41910002 -0.3513667 0.88900006 1.7484954e-39
-0.41740671 -0.3513667 0.88900006 1.7488499e-39
-0.41571334 -0.3513667 0.88900006 1.5655334e-39
-0.41402003 -0.3513667 0.88900006 1.4733336e-39
-0.41232669 -0.3513667 0.88900006 1.5648048e-39
-0.41063336 -0.3513667 0.88900006 1.7484884e-39
-0.40894002 -0.3513667 0.88900006 1.4733546e-39
-0.40724671 -0.3513667 0.88900006 1.2896752e-39
-0.40555334 -0.3513667 0.88900006 1.565532e-39
-0.40386003 -0.3513667 0.88900006 1.9332272e-39
-0.40216669 -0.3513667 0.88900006 1.8417448e-39
-0.40047336 -0.3513667 0.88900006 1.7499065e-39
-0.39878002 -0.3513667 0.88900006 1.8420993e-39
-0.39708671 -0.3513667 0.88900006 1.9339432e-39
-0.39628288 -0.35215715 0.89100003 2.0250697e-39
-0.3945857 -0.35215715 0.89100003 2.2083749e-39
-0.39288858 -0.35215715 0.89100003 2.0246969e-39
-0.39119142 -0.35215715 0.89100003 1.8410343e-39
-0.3894943 -0.35215715 0.89100003 1.8414029e-39
-0.38779715 -0.35215715 0.89100003 1.8410427e-39
-0.38610002 -0.35215715 0.89100003 1.5644601e-39
-0.38440287 -0.35215715 0.89100003 1.3815023e-39
-0.38270572 -0.35215715 0.89100003 1.6577221e-39
-0.3810086 -0.35215715 0.89100003 1.9332342e-39
-0.37931144 -0.35215715 0.89100003 2.3005832e-39
-0.37761432 -0.35215715 0.89100003 2.759039e-39
-0.37591714 -0.35215715 0.89100003 2.2994986e-39
-0.37548003 -0.35334286 0.89400005 1.9321706e-39
-0.37377718 -0.35334286 0.89400005 1.9325419e-39
-0.37207428 -0.35334286 0.89400005 1.9328908e-39
-0.37037143 -0.35334286 0.89400005 2.1169122e-39
-0.36866859 -0.35334286 0.89400005 2.3924074e-39
-0.36573431 -0.35215715 0.89100003 2.025413e-39
-0.36403716 -0.35215715 0.89100003 1.7502694e-39
-0.36356002 -0.35334286 0.89400005 1.8424679e-39
-0.36185715 -0.35334286 0.89400005 1.9335887e-39
-0.3601543 -0.35334286 0.89400005 2.0250683e-39
-0.35845146 -0.35334286 0.89400005 2.1176226e-39
-0.35674858 -0.35334286 0.89400005 2.0265074e-39
-0.35584003 -0.35413334 0.89600003 1.9332314e-39
-0.35413334 -0.35413334 0.89600003 1.9335859e-39
-0.35242668 -0.35413334 0.89600003 1.9335859e-39
-0.35072002 -0.35413334 0.89600003 1.9339446e-39
-0.3482343 -0.35334286 0.89400005 1.9339488e-39
-0.34730667 -0.35413334 0.89600003 2.3931305e-39
-0.34482858 -0.35334286 0.89400005 2.9430603e-39
-0.34312573 -0.35334286 0.89400005 2.3920417e-39
-0.34218669 -0.35413334 0.89600003 1.9332258e-39
-0.34048 -0.35413334 0.89600003 2.0261417e-39
-0.33877334 -0.35413334 0.89600003 2.1179729e-39
-0.33706668 -0.35413334 0.89600003 1.7506268e-39
-0.33536002 -0.35413334 0.89600003 1.383282e-39
-0.33365333 -0.35413334 0.89600003 1.5673103e-39
-0.33194667 -0.35413334 0.89600003 1.7488415e-39
-0.33097717 -0.35492381 0.89800006 1.840691e-39
-0.32853335 -0.35413334 0.89600003 1.9332356e-39
-0.32682666 -0.35413334 0.89600003 1.9335873e-39
-0.32512 -0.35413334 0.89600003 1.9335831e-39
-0.32341334 -0.35413334 0.89600003 2.0257745e-39
-0.32170668 -0.35413334 0.89600003 2.209807e-39
-0.31999999 -0.35413334 0.89600003 2.3941997e-39
-0.31829333 -0.35413334 0.89600003 2.6686328e-39
-0.31658667 -0.35413334 0.89600003 2.3934864e-39
-0.31488001 -0.35413334 0.89600003 2.1179842e-39
-0.31317332 -0.35413334 0.89600003 1.9346747e-39
-0.31146666 -0.35413334 0.89600003 1.7510009e-39
-0.30976 -0.35413334 0.89600003 1.9353852e-39
-0.30805334 -0.35413334 0.89600003 2.2105329e-39
-0.3070305 -0.35492381 0.89800006 1.9346677e-39
-0.30532002 -0.35492381 0.89800006 1.7502961e-39
-0.30360952 -0.35492381 0.89800006 1.8421484e-39
-0.30189908 -0.35492381 0.89800006 1.9336069e-39
-0.3001886 -0.35492381 0.89800006 1.9335887e-39
-0.2984781 -0.35492381 0.89800006 1.9335873e-39
-0.29676762 -0.35492381 0.89800006 2.3009293e-39
-0.29505718 -0.35492381 0.89800006 2.6679139e-39
-0.29334667 -0.35492381 0.89800006 2.2087364e-39
-0.2916362 -0.35492381 0.89800006 1.7492156e-39
-0.28992572 -0.35492381 0.89800006 2.2084085e-39
-0.28821525 -0.35492381 0.89800006 2.667572e-39
-0.28650478 -0.35492381 0.89800006 2.4842457e-39
-0.28574574 -0.35610953 0.90100002 2.3012922e-39
-0.28466001 -0.35690001 0.90300006 2.2101742e-39
-0.28231335 -0.35610953 0.90100002 2.2101742e-39
-0.28121999 -0.35690001 0.90300006 2.2108916e-39
-0.27950001 -0.35690001 0.90300006 2.3016537e-39
-0.27778 -0.35690001 0.90300006 2.1172695e-39
-0.27606001 -0.35690001 0.90300006 1.9336041e-39
-0.27434 -0.35690001 0.90300006 2.0254466e-39
-0.27261999 -0.35690001 0.90300006 2.1179856e-39
-0.27090001 -0.35690001 0.90300006 1.9328656e-39
-0.26918 -0.35690001 0.90300006 1.8410427e-39
-0.26746002 -0.35690001 0.90300006 2.4839024e-39
-0.26574001 -0.35690001 0.90300006 3.1267439e-39
-0.26402 -0.35690001 0.90300006 2.6679167e-39
-0.26230001 -0.35690001 0.90300006 2.2094581e-39
-0.26058 -0.35690001 0.90300006 2.3020111e-39
-0.25943333 -0.35769048 0.90500003 2.3934977e-39
-0.25770953 -0.35769048 0.90500003 2.2094791e-39
-0.25542 -0.35690001 0.90300006 2.1176366e-39
-0.25426191 -0.35769048 0.90500003 2.2094651e-39
-0.25253811 -0.35769048 0.90500003 2.3023782e-39
-0.25081429 -0.35769048 0.90500003 2.2109015e-39
-0.24909049 -0.35769048 0.90500003 2.2101714e-39
-0.24736668 -0.35769048 0.90500003 2.4849478e-39
-0.24564287 -0.35769048 0.90500003 2.7611844e-39
-0.24391906 -0.35769048 0.90500003 2.4856905e-39
-0.24219525 -0.35769048 0.90500003 2.3020125e-39
-0.24126859 -0.3588762 0.90800005 2.3020055e-39
-0.23953907 -0.3588762 0.90800005 2.3945696e-39
-0.23780954 -0.3588762 0.90800005 2.9438016e-39
-0.23608002 -0.3588762 0.90800005 3.4940845e-39
-0.23486666 -0.35966668 0.91000003 2.3916872e-39
-0.23313335 -0.35966668 0.91000003 1.2918276e-39
-0.23089145 -0.3588762 0.90800005 1.7506604e-39
-0.22916192 -0.3588762 0.90800005 2.3020195e-39
-0.2274324 -0.3588762 0.90800005 2.3027243e-39
-0.22570287 -0.3588762 0.90800005 2.3952745e-39
-0.22397335 -0.3588762 0.90800005 2.3949144e-39
-0.22273333 -0.35966668 0.91000003 2.3941997e-39
-0.221 -0.35966668 0.91000003 2.3034432e-39
-0.21926667 -0.35966668 0.91000003 2.3034432e-39
-0.21753334 -0.35966668 0.91000003 2.3952801e-39
-0.2158 -0.35966668 0.91000003 2.4864079e-39
-0.21406667 -0.35966668 0.91000003 2.3020293e-39
-0.21233334 -0.35966668 0.91000003 2.2098183e-39
-0.2106 -0.35966668 0.91000003 2.3030733e-39
-0.20886667 -0.35966668 0.91000003 2.394557e-39
-0.20713334 -0.35966668 0.91000003 2.3027285e-39
-0.2054 -0.35966668 0.91000003 2.3027327e-39
-0.20366667 -0.35966668 0.91000003 2.301302e-39
-0.20193332 -0.35966668 0.91000003 2.3938522e-39
-0.20020001 -0.35966668 0.91000003 2.8530269e-39
-0.19912095 -0.36085239 0.91300005 3.3111281e-39
-0.19738191 -0.36085239 0.91300005 3.0363391e-39
-0.19564286 -0.36085239 0.91300005 2.76119e-39
-0.19390382 -0.36085239 0.91300005 2.6700719e-39
-0.19216476 -0.36085239 0.91300005 2.5785994e-39
-0.19042572 -0.36085239 0.91300005 2.6707992e-39
-0.18868668 -0.36085239 0.91300005 2.7626431e-39
-0.18694763 -0.36085239 0.91300005 2.5768281e-39
-0.18520857 -0.36085239 0.91300005 2.4853388e-39
-0.18346953 -0.36085239 0.91300005 2.2105371e-39
-0.18173049 -0.36085239 0.91300005 1.9346719e-39
-0.18078001 -0.36243334 0.91700006 2.0265088e-39
-0.17903335 -0.36243334 0.91700006 2.2101756e-39
-0.17728668 -0.36243334 0.91700006 2.4856793e-39
-0.17554002 -0.36243334 0.91700006 2.8530353e-39
-0.17379335 -0.36243334 0.91700006 2.6693797e-39
-0.17260952 -0.36361906 0.92000002 2.5782406e-39
-0.17085715 -0.36361906 0.92000002 2.5796545e-39
-0.16910475 -0.36361906 0.92000002 2.579307e-39
-0.16735238 -0.36361906 0.92000002 2.5789581e-39
-0.1656 -0.36361906 0.92000002 2.5785896e-39
-0.16384763 -0.36361906 0.92000002 2.5785798e-39
-0.16209523 -0.36361906 0.92000002 2.5785938e-39
-0.16034286 -0.36361906 0.92000002 2.5789665e-39
-0.15859048 -0.36361906 0.92000002 2.5789567e-39
-0.1568381 -0.36361906 0.92000002 2.4874715e-39
-0.15508571 -0.36361906 0.92000002 2.3942151e-39
-0.15333334 -0.36361906 0.92000002 2.6697356e-39
-0.15158096 -0.36361906 0.92000002 2.9441505e-39
-0.14982858 -0.36361906 0.92000002 2.8519423e-39
-0.14807619 -0.36361906 0.92000002 2.760841e-39
-0.1463238 -0.36361906 0.92000002 2.6697412e-39
-0.14457142 -0.36361906 0.92000002 2.5782561e-39
-0.14281905 -0.36361906 0.92000002 2.3031013e-39
-0.14137334 -0.36440957 0.92200005 2.0283179e-39
-0.13961715 -0.36440957 0.92200005 2.4889345e-39
-0.13786097 -0.36440957 0.92200005 2.9466728e-39
-0.13610476 -0.36440957 0.92200005 2.854473e-39
-0.13434859 -0.36440957 0.92200005 2.7626403e-39
-0.13230476 -0.36361906 0.92000002 2.6708076e-39
-0.13083619 -0.36440957 0.92200005 2.5785994e-39
-0.1288 -0.36361906 0.92000002 2.7615389e-39
-0.12732381 -0.36440957 0.92200005 3.0377684e-39
-0.12556763 -0.36440957 0.92200005 2.762985e-39
-0.12381144 -0.36440957 0.92200005 2.4867723e-39
-0.12205524 -0.36440957 0.92200005 2.4864262e-39
-0.12029906 -0.36440957 0.92200005 2.4864178e-39
-0.11854286 -0.36440957 0.92200005 2.5800385e-39
-0.11678667 -0.36440957 0.92200005 2.7633466e-39
-0.11503048 -0.36440957 0.92200005 2.7629836e-39
-0.11327429 -0.36440957 0.92200005 2.8551835e-39
-0.11188096 -0.36559525 0.92500007 2.8555478e-39
-0.11011905 -0.36559525 0.92500007 2.8537611e-39
-0.10835715 -0.36559525 0.92500007 2.7622914e-39
-0.10659525 -0.36559525 0.92500007 2.7615599e-39
-0.10483334 -0.36559525 0.92500007 2.7636983e-39
-0.10307144 -0.36559525 0.92500007 2.8551764e-39
-0.10130953 -0.36559525 0.92500007 2.946656e-39
-0.099762864 -0.36638573 0.92700005 3.1292536e-39
-0.097785726 -0.36559525 0.92500007 3.1292564e-39
-0.096231431 -0.36638573 0.92700005 3.1292508e-39
-0.094465718 -0.36638573 0.92700005 3.0366936e-39
-0.092700005 -0.36638573 0.92700005 3.0370622e-39
-0.090934284 -0.36638573 0.92700005 3.4047741e-39
-0.089168578 -0.36638573 0.92700005 3.8642991e-39
-0.087402858 -0.36638573 0.92700005 3.2217996e-39
-0.085637145 -0.36638573 0.92700005 2.5793056e-39
-0.083871432 -0.36638573 0.92700005 2.4871072e-39
-0.082105719 -0.36638573 0.92700005 2.4874687e-39
-0.080339998 -0.36638573 0.92700005 2.4878289e-39
-0.078574292 -0.36638573 0.92700005 2.5793126e-39
-0.076808572 -0.36638573 0.92700005 2.5789609e-39
-0.075042859 -0.36638573 0.92700005 2.5789525e-39
-0.073277146 -0.36638573 0.92700005 2.3963493e-39
-0.071742855 -0.36757147 0.93000007 2.3045222e-39
-0.069971435 -0.36757147 0.93000007 2.4878429e-39
-0.068200007 -0.36757147 0.93000007 2.7633578e-39
-0.066428579 -0.36757147 0.93000007 2.7633662e-39
-0.064657152 -0.36757147 0.93000007 2.7626473e-39
-0.062885717 -0.36757147 0.93000007 2.7619284e-39
-0.061114289 -0.36757147 0.93000007 2.8541157e-39
-0.059342861 -0.36757147 0.93000007 3.3132861e-39
-0.057571433 -0.36757147 0.93000007 3.772458e-39
-0.055800002 -0.36757147 0.93000007 3.4973033e-39
-0.054144762 -0.36836192 0.93200004 3.221801e-39
-0.052369528 -0.36836192 0.93200004 2.8548233e-39
-0.050594285 -0.36836192 0.93200004 2.5793182e-39
-0.04881905 -0.36836192 0.93200004 2.7640668e-39
-0.047043812 -0.36836192 0.93200004 2.9480881e-39
-0.045268573 -0.36836192 0.93200004 2.856603e-39
-0.043493334 -0.36836192 0.93200004 2.7644115e-39
-0.041852385 -0.36954764 0.93500006 2.8562512e-39
-0.040071432 -0.36954764 0.93500006 2.9480909e-39
-0.038290478 -0.36954764 0.93500006 2.9484539e-39
-0.036509525 -0.36954764 0.93500006 3.0399377e-39
-0.034728575 -0.36954764 0.93500006 2.6708076e-39
-0.032947619 -0.36954764 0.93500006 2.3038174e-39
-0.031166669 -0.36954764 0.93500006 3.0392132e-39
-0.029385716 -0.36954764 0.93500006 3.8653725e-39
-0.027516192 -0.36836192 0.93200004 3.2221653e-39
-0.025823811 -0.36954764 0.93500006 2.5789637e-39
-0.023965714 -0.36836192 0.93200004 2.7644354e-39
-0.022190478 -0.36836192 0.93200004 3.0388713e-39
-0.020415239 -0.36836192 0.93200004 2.8548471e-39
-0.01864 -0.36836192 0.93200004 2.7626459e-39
-0.016864762 -0.36836192 0.93200004 3.1299823e-39
-0.015089524 -0.36836192 0.93200004 3.4976732e-39
-0.013357143 -0.36954764 0.93500006 3.2225156e-39
-0.011576191 -0.36954764 0.93500006 2.9473735e-39
-0.0097952392 -0.36954764 0.93500006 3.1314102e-39
-0.0080142869 -0.36954764 0.93500006 3.4065468e-39
-0.0062333336 -0.36954764 0.93500006 3.4061754e-39
-0.0044523813 -0.36954764 0.93500006 3.4065454e-39
-0.0026714287 -0.36954764 0.93500006 3.1317675e-39
-0.00089047622 -0.36954764 0.93500006 2.9480966e-39
0.00089238095 -0.37033811 0.93700004 2.8562611e-39
0.0026714287 -0.36954764 0.93500006 2.8559065e-39
0.0044523813 -0.36954764 0.93500006 2.8559107e-39
0.0062333336 -0.36954764 0.93500006 2.8558995e-39
0.0080314288 -0.37033811 0.93700004 3.3150644e-39
0.0098161902 -0.37033811 0.93700004 3.8653655e-39
0.011600953 -0.37033811 0.93700004 3.4973117e-39
0.013385714 -0.37033811 0.93700004 3.1313976e-39
0.015170476 -0.37033811 0.93700004 2.8576792e-39
0.017009525 -0.37152383 0.94000006 2.6722341e-39
0.018800002 -0.37152383 0.94000006 3.1310739e-39
0.020524763 -0.37033811 0.93700004 3.5898814e-39
0.022380954 -0.37152383 0.94000006 3.865018e-39
0.024171429 -0.37152383 0.94000006 4.1408804e-39
0.025879048 -0.37033811 0.93700004 3.6820589e-39
0.02766381 -0.37033811 0.93700004 3.2225282e-39
0.029448573 -0.37033811 0.93700004 3.4958893e-39
0.031233335 -0.37033811 0.93700004 3.7721203e-39
0.033018097 -0.37033811 0.93700004 3.4055042e-39
0.034802862 -0.37033811 0.93700004 3.1299935e-39
0.036587618 -0.37033811 0.93700004 3.4058545e-39
0.038372383 -0.37033811 0.93700004 3.7739126e-39
0.040157143 -0.37033811 0.93700004 3.5913178e-39
0.042076193 -0.37152383 0.94000006 3.4069307e-39
0.043866668 -0.37152383 0.94000006 3.2229038e-39
0.045657143 -0.37152383 0.94000006 3.1314312e-39
0.047447622 -0.37152383 0.94000006 3.223987e-39
0.04934286 -0.3723143 0.94200003 3.4076538e-39
0.0513 -0.37350002 0.94500005 3.4994865e-39
0.053100005 -0.37350002 0.94500005 3.6831547e-39
0.054900002 -0.37350002 0.94500005 3.1332165e-39
0.056700002 -0.37350002 0.94500005 2.6733047e-39
0.058500003 -0.37350002 0.94500005 2.9491531e-39
0.0603 -0.37350002 0.94500005 3.316142e-39
0.062100001 -0.37350002 0.94500005 3.49982e-39
0.063900001 -0.37350002 0.94500005 3.7749761e-39
0.065700002 -0.37350002 0.94500005 3.6820729e-39
0.067714289 -0.37468576 0.94800007 3.5909464e-39
0.069520004 -0.37468576 0.94800007 3.774609e-39
0.071325719 -0.37468576 0.94800007 4.0504742e-39
0.072900005 -0.37350002 0.94500005 3.8671634e-39
0.074700005 -0.37350002 0.94500005 3.7753363e-39
0.076500006 -0.37350002 0.94500005 3.6842267e-39
0.078299999 -0.37350002 0.94500005 3.592045e-39
0.079845719 -0.3723143 0.94200003 3.6835358e-39
0.081639998 -0.3723143 0.94200003 3.7753489e-39
0.083434291 -0.3723143 0.94200003 3.7753279e-39
0.085228577 -0.3723143 0.94200003 3.8678948e-39
0.08730001 -0.37350002 0.94500005 3.8661138e-39
0.089100003 -0.37350002 0.94500005 3.8661096e-39
0.090900004 -0.37350002 0.94500005 3.8664641e-39
0.092700005 -0.37350002 0.94500005 3.8675417e-39
0.094500005 -0.37350002 0.94500005 3.7757076e-39
0.096300006 -0.37350002 0.94500005 3.6838735e-39
0.098100007 -0.37350002 0.94500005 3.7760678e-39
0.0999 -0.37350002 0.94500005 3.9597388e-39
0.1017 -0.37350002 0.94500005 3.8657495e-39
0.10382858 -0.37468576 0.94800007 3.7757048e-39
0.10563429 -0.37468576 0.94800007 3.8671802e-39
0.10744001 -0.37468576 0.94800007 4.0512085e-39
0.10924572 -0.37468576 0.94800007 3.9597317e-39
0.11105144 -0.37468576 0.94800007 3.8678878e-39
0.11285715 -0.37468576 0.94800007 3.9597163e-39
0.11466286 -0.37468576 0.94800007 4.05157e-39
0.11646858 -0.37468576 0.94800007 3.8679173e-39
0.11827429 -0.37468576 0.94800007 3.7753573e-39
0.12008001 -0.37468576 0.94800007 3.7749902e-39
0.12214286 -0.37547621 0.95000005 3.8675347e-39
0.12369143 -0.37468576 0.94800007 3.7771243e-39
0.12549715 -0.37468576 0.94800007 3.7771271e-39
0.12730287 -0.37468576 0.94800007 3.9608009e-39
0.12938096 -0.37547621 0.95000005 4.2359431e-39
0.13119048 -0.37547621 0.95000005 4.144102e-39
0.133 -0.37547621 0.95000005 4.0519274e-39
0.13480952 -0.37547621 0.95000005 4.0515897e-39
0.13661906 -0.37547621 0.95000005 4.143058e-39
0.13886572 -0.37666193 0.95300007 4.2338089e-39
0.14068097 -0.37666193 0.95300007 4.3263661e-39
0.1424962 -0.37666193 0.95300007 4.142342e-39
0.14431143 -0.37666193 0.95300007 4.0512183e-39
0.14612667 -0.37666193 0.95300007 3.9593786e-39
0.1479419 -0.37666193 0.95300007 3.8696997e-39
0.14975715 -0.37666193 0.95300007 3.8700627e-39
0.15157239 -0.37666193 0.95300007 3.8700669e-39
0.15338762 -0.37666193 0.95300007 3.961908e-39
0.15520287 -0.37666193 0.95300007 4.0533749e-39
0.15734763 -0.3774524 0.95500004 4.1452006e-39
0.15916666 -0.3774524 0.95500004 4.2370347e-39
0.16098572 -0.3774524 0.95500004 4.3288688e-39
0.16280477 -0.3774524 0.95500004 4.5107405e-39
0.16462381 -0.3774524 0.95500004 4.2352284e-39
0.16644287 -0.3774524 0.95500004 4.051919e-39
0.1682619 -0.3774524 0.95500004 3.8689682e-39
0.17008096 -0.3774524 0.95500004 3.6856574e-39
0.1719 -0.3774524 0.95500004 3.8700486e-39
0.17371906 -0.3774524 0.95500004 4.0533469e-39
0.17553809 -0.3774524 0.95500004 3.9614988e-39
0.17735715 -0.3774524 0.95500004 3.9615086e-39
0.17880096 -0.37666193 0.95300007 3.9615184e-39
0.1806162 -0.37666193 0.95300007 4.0533525e-39
0.18243143 -0.37666193 0.95300007 4.145188e-39
0.18463333 -0.3774524 0.95500004 4.3285045e-39
0.18645239 -0.3774524 0.95500004 4.2366718e-39
0.18827143 -0.3774524 0.95500004 4.2366704e-39
0.19009049 -0.3774524 0.95500004 4.3288632e-39
0.19190952 -0.3774524 0.95500004 4.4207085e-39
0.19372858 -0.3774524 0.95500004 4.3288828e-39
0.19616193 -0.37863812 0.95800006 4.3288772e-39
0.19736668 -0.3774524 0.95500004 4.5125426e-39
0.19918571 -0.3774524 0.95500004 4.7880589e-39
0.20100477 -0.3774524 0.95500004 4.4210868e-39
0.20282382 -0.3774524 0.95500004 4.1455734e-39
0.20528573 -0.37863812 0.95800006 3.9622555e-39
0.20711049 -0.37863812 0.95800006 3.8704214e-39
0.20893526 -0.37863812 0.95800006 4.0540952e-39
0.21142001 -0.3798238 0.96100003 4.3285269e-39
0.21325049 -0.3798238 0.96100003 4.6944353e-39
0.21508096 -0.3798238 0.96100003 5.0621318e-39
0.21691144 -0.3798238 0.96100003 4.6955031e-39
0.21874191 -0.3798238 0.96100003 4.4210658e-39
0.22103143 -0.38061431 0.96300006 4.3303009e-39
0.22286573 -0.38061431 0.96300006 4.3281555e-39
0.2247 -0.38061431 0.96300006 4.3285227e-39
0.22653429 -0.38061431 0.96300006 4.3278038e-39
0.22836858 -0.38061431 0.96300006 4.4192778e-39
0.23020287 -0.38061431 0.96300006 4.6029446e-39
0.23203714 -0.38061431 0.96300006 4.7866127e-39
0.23387145 -0.38061431 0.96300006 5.062485e-39
0.23521619 -0.3798238 0.96100003 4.787703e-39
0.23754002 -0.38061431 0.96300006 4.5129153e-39
0.23937429 -0.38061431 0.96300006 4.3303233e-39
0.24070762 -0.3798238 0.96100003 4.1466467e-39
0.24304287 -0.38061431 0.96300006 4.3303135e-39
0.24487714 -0.38061431 0.96300006 4.5139873e-39
0.24671145 -0.38061431 0.96300006 4.3299618e-39
0.24854574 -0.38061431 0.96300006 4.1466439e-39
0.25038001 -0.38061431 0.96300006 4.0555203e-39
0.25221428 -0.38061431 0.96300006 3.9633289e-39
0.25404859 -0.38061431 0.96300006 4.2384794e-39
0.25588286 -0.38061431 0.96300006 4.5139873e-39
0.25771716 -0.38061431 0.96300006 4.422512e-39
0.26036 -0.3818 0.96600002 4.422505e-39
0.2622 -0.3818 0.96600002 4.5146922e-39
0.26486 -0.38298571 0.96900004 4.6983688e-39
0.26670572 -0.38298571 0.96900004 4.5157782e-39
0.26855144 -0.38298571 0.96900004 4.3310282e-39
0.27039716 -0.38298571 0.96900004 4.4225022e-39
0.27224287 -0.38298571 0.96900004 4.5132699e-39
0.27408856 -0.38298571 0.96900004 4.5136384e-39
0.27508003 -0.3818 0.96600002 4.6058228e-39
0.27778 -0.38298571 0.96900004 4.4232196e-39
0.27962574 -0.38298571 0.96900004 4.3306695e-39
0.28147143 -0.38298571 0.96900004 4.6065389e-39
0.28331715 -0.38298571 0.96900004 4.9735123e-39
0.28516287 -0.38298571 0.96900004 5.2486503e-39
0.28700858 -0.38298571 0.96900004 5.5238177e-39
0.2888543 -0.38298571 0.96900004 4.6969591e-39
0.29070002 -0.38298571 0.96900004 3.8711318e-39
0.29164001 -0.3818 0.96600002 4.3324365e-39
0.29439145 -0.38298571 0.96900004 4.7901903e-39
0.29623714 -0.38298571 0.96900004 4.6987233e-39
0.29808286 -0.38298571 0.96900004 4.6983744e-39
0.29992858 -0.38298571 0.96900004 4.6061914e-39
0.30177429 -0.38298571 0.96900004 4.6061717e-39
0.30456001 -0.38417146 0.97200006 4.6065109e-39
0.30546573 -0.38298571 0.96900004 4.6065333e-39
0.30826288 -0.38417146 0.97200006 4.6976737e-39
0.30915716 -0.38298571 0.96900004 4.78771e-39
0.31196573 -0.38417146 0.97200006 4.4203624e-39
0.31381717 -0.38417146 0.97200006 4.145216e-39
0.31566858 -0.38417146 0.97200006 4.3296045e-39
0.31752002 -0.38417146 0.97200006 4.6061858e-39
0.31937146 -0.38417146 0.97200006 4.6990947e-39
0.32122287 -0.38417146 0.97200006 4.7902155e-39
0.32307431 -0.38417146 0.97200006 4.6980255e-39
0.32492575 -0.38417146 0.97200006 4.6980213e-39
0.32677716 -0.38417146 0.97200006 5.0657178e-39
0.3286286 -0.38417146 0.97200006 5.5249037e-39
0.33048001 -0.38417146 0.97200006 5.2504804e-39
0.33233145 -0.38417146 0.97200006 5.0664464e-39
0.33418289 -0.38417146 0.97200006 4.974248e-39
0.3360343 -0.38417146 0.97200006 4.9742578e-39
0.33788574 -0.38417146 0.97200006 4.6987597e-39
0.34043619 -0.38496193 0.97400004 4.5147202e-39
0.34229144 -0.38496193 0.97400004 4.6983814e-39
0.34414667 -0.38496193 0.97400004 4.8816965e-39
0.34600189 -0.38496193 0.97400004 4.789505e-39
0.34785715 -0.38496193 0.97400004 4.6983744e-39
0.3497124 -0.38496193 0.97400004 4.7909161e-39
0.35156763 -0.38496193 0.97400004 4.8827572e-39
0.35342288 -0.38496193 0.97400004 4.7912875e-39
0.35637239 -0.38614762 0.97700006 4.6994492e-39
0.35823336 -0.38614762 0.97700006 4.8834761e-39
0.36009431 -0.38614762 0.97700006 5.06678e-39
0.36195526 -0.38614762 0.97700006 5.0664142e-39
0.3638162 -0.38614762 0.97700006 5.1579008e-39
0.36567718 -0.38614762 0.97700006 5.6170895e-39
0.36866668 -0.38733333 0.98000002 6.1677451e-39
0.37053332 -0.38733333 0.98000002 5.5234631e-39
0.37240002 -0.38733333 0.98000002 4.8824153e-39
0.37426668 -0.38733333 0.98000002 4.7913043e-39
0.37613332 -0.38733333 0.98000002 4.7905686e-39
0.37799999 -0.38733333 0.98000002 4.6990736e-39
0.38102955 -0.38851905 0.98300004 4.6083213e-39
0.38173333 -0.38733333 0.98000002 4.7923595e-39
0.3847743 -0.38851905 0.98300004 5.0678646e-39
0.38664666 -0.38851905 0.98300004 4.9753102e-39
0.38851905 -0.38851905 0.98300004 4.9749487e-39
0.39039144 -0.38851905 0.98300004 4.9745871e-39
0.39106667 -0.38733333 0.98000002 4.975313e-39
0.39413619 -0.38851905 0.98300004 4.9753228e-39
0.39600858 -0.38851905 0.98300004 5.066808e-39
0.39788097 -0.38851905 0.98300004 4.8831454e-39
0.39975336 -0.38851905 0.98300004 4.6998205e-39
0.40162575 -0.38851905 0.98300004 4.7934385e-39
0.40349808 -0.38851905 0.98300004 4.9767423e-39
0.40413332 -0.38733333 0.98000002 4.8856145e-39
0.40600002 -0.38733333 0.98000002 4.8845523e-39
0.40661812 -0.38614762 0.97700006 4.8845663e-39
0.40973333 -0.38733333 0.98000002 4.8845593e-39
0.41160002 -0.38733333 0.98000002 4.884911e-39
0.41346666 -0.38733333 0.98000002 4.8849166e-39
0.41533333 -0.38733333 0.98000002 4.9767591e-39
0.4172 -0.38733333 0.98000002 5.0689506e-39
0.41906667 -0.38733333 0.98000002 5.0693051e-39
0.4222219 -0.38851905 0.98300004 5.1593595e-39
0.42409429 -0.38851905 0.98300004 5.251565e-39
0.42466664 -0.38733333 0.98000002 5.3430361e-39
0.42783907 -0.38851905 0.98300004 5.7103725e-39
0.42971143 -0.38851905 0.98300004 6.1688325e-39
0.43158382 -0.38851905 0.98300004 5.8011318e-39
0.43345621 -0.38851905 0.98300004 5.4341542e-39
0.4362143 -0.38930956 0.98500007 5.4348786e-39
0.43720096 -0.38851905 0.98300004 5.4345101e-39
0.43996668 -0.38930956 0.98500007 5.7100082e-39
0.44318858 -0.39049524 0.98800004 5.9866007e-39
0.44371906 -0.38930956 0.98500007 5.7121788e-39
0.4469524 -0.39049524 0.98800004 5.5270518e-39
0.4488343 -0.39049524 0.98800004 5.4355541e-39
0.4507162 -0.39049524 0.98800004 5.3440927e-39
0.45259812 -0.39049524 0.98800004 4.8863642e-39
0.45447999 -0.39049524 0.98800004 4.5190194e-39
0.45774764 -0.39168096 0.99100006 4.8863586e-39
0.45963526 -0.39168096 0.99100006 5.3451913e-39
0.46152288 -0.39168096 0.99100006 5.3448466e-39
0.46481335 -0.39286667 0.99400002 5.3448368e-39
0.46529812 -0.39168096 0.99100006 4.9774836e-39
0.46718574 -0.39168096 0.99100006 4.6097843e-39
0.46907336 -0.39168096 0.99100006 4.793098e-39
0.47096097 -0.39168096 0.99100006 5.068603e-39
0.47284859 -0.39168096 0.99100006 4.9771263e-39
0.47473621 -0.39168096 0.99100006 4.885288e-39
0.47662383 -0.39168096 0.99100006 4.9781983e-39
0.47851145 -0.39168096 0.99100006 5.1615091e-39
0.48185334 -0.39286667 0.99400002 5.06788e-39
0.48374668 -0.39286667 0.99400002 4.9767661e-39
0.48710573 -0.39405239 0.99700004 5.2529943e-39
0.49047619 -0.3952381 1 5.6199734e-39
0.49238095 -0.3952381 1 5.4362996e-39
0.4942857 -0.3952381 1 5.3444725e-39
0.49767902 -0.39642379 1.003 5.8025822e-39
0.49958956 -0.39642379 1.003 6.3535853e-39
0.50150001 -0.39642379 1.003 5.8018465e-39
0.50341046 -0.39642379 1.003 5.3451773e-39
0.50683236 -0.39760953 1.006 4.885997e-39
0.50975996 -0.39840001 1.008 4.4253944e-39
0.51168001 -0.39840001 1.008 5.1597309e-39
0.51512855 -0.39958572 1.011 5.8944247e-39
0.51705432 -0.39958572 1.011 5.5270911e-39
0.51898003 -0.39958572 1.011 5.2512175e-39
0.52245146 -0.40077144 1.0140001 5.1593736e-39
0.52438289 -0.40077144 1.0140001 5.0693331e-39
0.52631426 -0.40077144 1.0140001 5.1608127e-39
0.52824575 -0.40077144 1.0140001 5.2526328e-39
-0.52629429 -0.34338 0.87300003 1.4726147e-39
-0.52463144 -0.34338 0.87300003 1.4726105e-39
-0.5241667 -0.3441667 0.87500006 1.4733294e-39
-0.52250004 -0.3441667 0.87500006 1.5648076e-39
-0.52083337 -0.3441667 0.87500006 1.6566487e-39
-0.51916671 -0.3441667 0.87500006 1.5655377e-39
-0.52045715 -0.34613335 0.88000005 1.4740511e-39
-0.51878101 -0.34613335 0.88000005 1.4740427e-39
-0.51828003 -0.34692001 0.88200003 1.4740455e-39
-0.51660001 -0.34692001 0.88200003 1.290736e-39
-0.51492 -0.34692001 0.88200003 1.1974614e-39
-0.51440382 -0.34770671 0.88400006 1.3818456e-39
-0.51271999 -0.34770671 0.88400006 1.5655194e-39
-0.51103622 -0.34770671 0.88400006 1.5651649e-39
-0.51108098 -0.3488867 0.88700002 1.6566375e-39
-0.50939143 -0.3488867 0.88700002 1.3811268e-39
-0.50770193 -0.3488867 0.88700002 1.1070594e-39
-0.50601238 -0.3488867 0.88700002 1.2900186e-39
-0.50432283 -0.3488867 0.88700002 1.5648062e-39
-0.50263333 -0.3488867 0.88700002 1.4729707e-39
-0.50207341 -0.34967333 0.88900006 1.3814981e-39
-0.50038004 -0.34967333 0.88900006 1.381145e-39
-0.4986867 -0.34967333 0.88900006 1.4729763e-39
-0.49699333 -0.34967333 0.88900006 1.3814953e-39
-0.49641433 -0.35045999 0.89100003 1.2900242e-39
-0.49471715 -0.35045999 0.89100003 1.1981943e-39
-0.49302003 -0.35045999 0.89100003 1.1981943e-39
-0.49132288 -0.35045999 0.89100003 1.3818653e-39
-0.48962569 -0.35045999 0.89100003 1.6573661e-39
-0.48792857 -0.35045999 0.89100003 1.3814967e-39
-0.48623145 -0.35045999 0.89100003 1.1052644e-39
-0.48453429 -0.35045999 0.89100003 1.2896444e-39
-0.48283714 -0.35045999 0.89100003 1.5662327e-39
-0.48006001 -0.34967333 0.88900006 1.1988977e-39
-0.4783667 -0.34967333 0.88900006 8.3192147e-40
-0.47667333 -0.34967333 0.88900006 1.1070776e-39
-0.47604859 -0.35045999 0.89100003 1.3825757e-39
-0.47435147 -0.35045999 0.89100003 1.7491918e-39
-0.47265428 -0.35045999 0.89100003 2.0243368e-39
-0.47095713 -0.35045999 0.89100003 1.7488275e-39
-0.46926001 -0.35045999 0.89100003 1.4736853e-39
-0.46913716 -0.35164002 0.89400005 1.4736923e-39
-0.46586573 -0.35045999 0.89100003 1.4736881e-39
-0.46416858 -0.35045999 0.89100003 1.4729679e-39
-0.46247146 -0.35045999 0.89100003 1.4726204e-39
-0.4607743 -0.35045999 0.89100003 1.2893207e-39
-0.45907715 -0.35045999 0.89100003 1.1067119e-39
-0.45738003 -0.35045999 0.89100003 1.1985348e-39
-0.45568287 -0.35045999 0.89100003 1.3822128e-39
-0.45398575 -0.35045999 0.89100003 1.381145e-39
-0.45228857 -0.35045999 0.89100003 1.3804289e-39
-0.45059142 -0.35045999 0.89100003 1.5648202e-39
-0.44889429 -0.35045999 0.89100003 1.749559e-39
-0.44719714 -0.35045999 0.89100003 1.6566389e-39
-0.44550002 -0.35045999 0.89100003 1.6566613e-39
-0.44380286 -0.35045999 0.89100003 1.5644895e-39
-0.44210574 -0.35045999 0.89100003 1.5651789e-39
-0.44040859 -0.35045999 0.89100003 1.4729567e-39
-0.43871143 -0.35045999 0.89100003 1.4729595e-39
-0.43701431 -0.35045999 0.89100003 1.6566333e-39
-0.43531716 -0.35045999 0.89100003 1.8392281e-39
-0.43362001 -0.35045999 0.89100003 1.6559158e-39
-0.43192285 -0.35045999 0.89100003 1.5648034e-39
-0.43022573 -0.35045999 0.89100003 1.7484814e-39
-0.42852858 -0.35045999 0.89100003 1.9321566e-39
-0.42587334 -0.34967333 0.88900006 1.9321622e-39
-0.42418003 -0.34967333 0.88900006 1.9321622e-39
-0.42248669 -0.34967333 0.88900006 1.7488499e-39
-0.42079335 -0.34967333 0.88900006 1.4736965e-39
-0.41910002 -0.34967333 0.88900006 1.5651677e-39
-0.41740671 -0.34967333 0.88900006 1.6570032e-39
-0.4166486 -0.35045999 0.89100003 1.8403169e-39
-0.41402003 -0.34967333 0.88900006 2.0239809e-39
-0.41232669 -0.34967333 0.88900006 2.0239752e-39
-0.41063336 -0.34967333 0.88900006 1.9325083e-39
-0.40894002 -0.34967333 0.88900006 1.7488485e-39
-0.40724671 -0.34967333 0.88900006 1.4736965e-39
-0.40555334 -0.34967333 0.88900006 1.6577221e-39
-0.40386003 -0.34967333 0.88900006 1.9335803e-39
-0.40216669 -0.34967333 0.88900006 1.8417378e-39
-0.40047336 -0.34967333 0.88900006 1.748466e-39
-0.39878002 -0.34967333 0.88900006 2.0250472e-39
-0.39798003 -0.35045999 0.89100003 2.3012838e-39
-0.39628288 -0.35045999 0.89100003 2.208026e-39
-0.3945857 -0.35045999 0.89100003 2.2076546e-39
-0.39288858 -0.35045999 0.89100003 2.1161667e-39
-0.39119142 -0.35045999 0.89100003 2.1165324e-39
-0.3894943 -0.35045999 0.89100003 1.9328698e-39
-0.38779715 -0.35045999 0.89100003 1.7488443e-39
-0.38610002 -0.35045999 0.89100003 1.4737008e-39
-0.38440287 -0.35045999 0.89100003 1.2903815e-39
-0.38270572 -0.35045999 0.89100003 1.5655222e-39
-0.3810086 -0.35045999 0.89100003 1.8410357e-39
-0.37931144 -0.35045999 0.89100003 2.1161919e-39
-0.37761432 -0.35045999 0.89100003 2.3913284e-39
-0.37591714 -0.35045999 0.89100003 2.1158107e-39
-0.37548003 -0.35164002 0.89400005 1.8403309e-39
-0.37377718 -0.35164002 0.89400005 1.8407176e-39
-0.37082571 -0.35045999 0.89100003 1.932895e-39
-0.36912858 -0.35045999 0.89100003 2.1161919e-39
-0.36743143 -0.35045999 0.89100003 2.391327e-39
-0.36573431 -0.35045999 0.89100003 2.1172429e-39
-0.36403716 -0.35045999 0.89100003 1.7491904e-39
-0.36234 -0.35045999 0.89100003 1.8413931e-39
-0.36185715 -0.35164002 0.89400005 2.0254242e-39
-0.3601543 -0.35164002 0.89400005 2.0250669e-39
-0.35845146 -0.35164002 0.89400005 2.0247123e-39
-0.35674858 -0.35164002 0.89400005 1.932881e-39
-0.35584003 -0.35242668 0.89600003 1.9332342e-39
-0.35413334 -0.35242668 0.89600003 1.9335887e-39
-0.35242668 -0.35242668 0.89600003 1.9342992e-39
-0.34993717 -0.35164002 0.89400005 1.7502624e-39
-0.3482343 -0.35164002 0.89400005 1.6595101e-39
-0.34653145 -0.35164002 0.89400005 2.0250669e-39
-0.34482858 -0.35164002 0.89400005 2.3913242e-39
-0.34389335 -0.35242668 0.89600003 2.1168855e-39
-0.34218669 -0.35242668 0.89600003 1.8413861e-39
-0.34048 -0.35242668 0.89600003 1.9332286e-39
-0.33877334 -0.35242668 0.89600003 1.9332258e-39
-0.33706668 -0.35242668 0.89600003 1.7502694e-39
-0.33536002 -0.35242668 0.89600003 1.6598633e-39
-0.33365333 -0.35242668 0.89600003 1.6587815e-39
-0.33194667 -0.35242668 0.89600003 1.6566473e-39
-0.33097717 -0.35321334 0.89800006 1.7492185e-39
-0.32853335 -0.35242668 0.89600003 1.9332398e-39
-0.32682666 -0.35242668 0.89600003 1.9332314e-39
-0.32512 -0.35242668 0.89600003 1.9335831e-39
-0.32341334 -0.35242668 0.89600003 1.841742e-39
-0.32170668 -0.35242668 0.89600003 1.7499079e-39
-0.31999999 -0.35242668 0.89600003 2.3005649e-39
-0.31829333 -0.35242668 0.89600003 2.9430589e-39
-0.31658667 -0.35242668 0.89600003 2.483887e-39
-0.31488001 -0.35242668 0.89600003 2.0247249e-39
-0.31317332 -0.35242668 0.89600003 1.8417868e-39
-0.31146666 -0.35242668 0.89600003 1.7506534e-39
-0.30976 -0.35242668 0.89600003 2.0257857e-39
-0.30805334 -0.35242668 0.89600003 2.3009279e-39
-0.3070305 -0.35321334 0.89800006 2.1172513e-39
-0.30532002 -0.35321334 0.89800006 1.9335915e-39
-0.30360952 -0.35321334 0.89800006 1.9339614e-39
-0.30189908 -0.35321334 0.89800006 1.9328768e-39
-0.3001886 -0.35321334 0.89800006 1.8417504e-39
-0.2984781 -0.35321334 0.89800006 1.7517114e-39
-0.29676762 -0.35321334 0.89800006 1.9346691e-39
-0.29604286 -0.35439333 0.90100002 2.1179856e-39
-0.29432666 -0.35439333 0.90100002 2.0257969e-39
-0.2916362 -0.35321334 0.89800006 1.9325391e-39
-0.29089427 -0.35439333 0.90100002 2.1162241e-39
-0.28821525 -0.35321334 0.89800006 2.2995126e-39
-0.28746194 -0.35439333 0.90100002 2.2087294e-39
-0.28574574 -0.35439333 0.90100002 2.1183303e-39
-0.28466001 -0.35518003 0.90300006 2.1183331e-39
-0.28231335 -0.35439333 0.90100002 2.21017e-39
-0.28121999 -0.35518003 0.90300006 2.1176198e-39
-0.27950001 -0.35518003 0.90300006 2.1172667e-39
-0.27778 -0.35518003 0.90300006 1.9336027e-39
-0.27606001 -0.35518003 0.90300006 1.7495688e-39
-0.27434 -0.35518003 0.90300006 2.0254312e-39
-0.27261999 -0.35518003 0.90300006 2.3938368e-39
-0.27090001 -0.35518003 0.90300006 2.209077e-39
-0.26918 -0.35518003 0.90300006 2.0254172e-39
-0.2680524 -0.35596669 0.90500003 2.3931291e-39
-0.26574001 -0.35518003 0.90300006 2.7608256e-39
-0.26402 -0.35518003 0.90300006 2.3934794e-39
-0.26288098 -0.35596669 0.90500003 2.0265004e-39
-0.26115713 -0.35596669 0.90500003 2.1179828e-39
-0.25943333 -0.35596669 0.90500003 2.1179968e-39
-0.25770953 -0.35596669 0.90500003 2.1176534e-39
-0.25598571 -0.35596669 0.90500003 2.2091204e-39
-0.25426191 -0.35596669 0.90500003 2.3927816e-39
-0.25253811 -0.35596669 0.90500003 2.5775344e-39
-0.25081429 -0.35596669 0.90500003 2.3935103e-39
-0.24909049 -0.35596669 0.90500003 2.3016594e-39
-0.24736668 -0.35596669 0.90500003 2.6689859e-39
-0.24564287 -0.35596669 0.90500003 3.0367021e-39
-0.24391906 -0.35596669 0.90500003 2.6693769e-39
-0.24299811 -0.35714668 0.90800005 2.3020195e-39
-0.24126859 -0.35714668 0.90800005 2.2101686e-39
-0.24006668 -0.35793334 0.91000003 2.1186918e-39
-0.23833333 -0.35793334 0.91000003 2.4853177e-39
-0.23660001 -0.35793334 0.91000003 2.8515779e-39
-0.23486666 -0.35793334 0.91000003 2.3009181e-39
-0.23313335 -0.35793334 0.91000003 1.7506366e-39
-0.23089145 -0.35714668 0.90800005 2.0261571e-39
-0.22916192 -0.35714668 0.90800005 2.3023726e-39
-0.2274324 -0.35714668 0.90800005 2.3027243e-39
-0.2262 -0.35793334 0.91000003 2.3952731e-39
-0.22397335 -0.35714668 0.90800005 2.4871058e-39
-0.22273333 -0.35793334 0.91000003 2.6696964e-39
-0.221 -0.35793334 0.91000003 2.5778567e-39
-0.21926667 -0.35793334 0.91000003 2.5778637e-39
-0.21753334 -0.35793334 0.91000003 2.5778707e-39
-0.2158 -0.35793334 0.91000003 2.6700789e-39
-0.21406667 -0.35793334 0.91000003 2.4853458e-39
-0.21233334 -0.35793334 0.91000003 2.3934878e-39
-0.2106 -0.35793334 0.91000003 2.3938242e-39
-0.20886667 -0.35793334 0.91000003 2.3027145e-39
-0.20713334 -0.35793334 0.91000003 2.3945584e-39
-0.2054 -0.35793334 0.91000003 2.4867569e-39
-0.20366667 -0.35793334 0.91000003 2.4864037e-39
-0.20193332 -0.35793334 0.91000003 2.3942095e-39
-0.20086001 -0.35911337 0.91300005 2.5775218e-39
-0.19912095 -0.35911337 0.91300005 2.8519521e-39
-0.19738191 -0.35911337 0.91300005 2.7611928e-39
-0.19564286 -0.35911337 0.91300005 2.7619102e-39
-0.19390382 -0.35911337 0.91300005 2.5782406e-39
-0.19216476 -0.35911337 0.91300005 2.394934e-39
-0.19042572 -0.35911337 0.91300005 2.3952983e-39
-0.18868668 -0.35911337 0.91300005 2.3953011e-39
-0.18694763 -0.35911337 0.91300005 2.3942277e-39
-0.18561429 -0.35990003 0.91500002 2.3938592e-39
-0.18346953 -0.35911337 0.91300005 2.3020139e-39
-0.18173049 -0.35911337 0.91300005 2.1183429e-39
-0.18078001 -0.36068666 0.91700006 2.3020153e-39
-0.17903335 -0.36068666 0.91700006 2.4856793e-39
-0.17728668 -0.36068666 0.91700006 2.8530142e-39
-0.17554002 -0.36068666 0.91700006 3.127467e-39
-0.17379335 -0.36068666 0.91700006 2.761225e-39
-0.17204668 -0.36068666 0.91700006 2.3949284e-39
-0.17085715 -0.36186668 0.92000002 2.3952577e-39
-0.16855335 -0.36068666 0.91700006 2.4878331e-39
-0.16735238 -0.36186668 0.92000002 2.4867807e-39
-0.1656 -0.36186668 0.92000002 2.5782448e-39
-0.16331333 -0.36068666 0.91700006 2.6700677e-39
-0.16209523 -0.36186668 0.92000002 2.7622662e-39
-0.16034286 -0.36186668 0.92000002 2.7622704e-39
-0.15859048 -0.36186668 0.92000002 2.6704293e-39
-0.1568381 -0.36186668 0.92000002 2.4860352e-39
-0.15508571 -0.36186668 0.92000002 2.392769e-39
-0.15333334 -0.36186668 0.92000002 2.486045e-39
-0.15158096 -0.36186668 0.92000002 2.6693573e-39
-0.14982858 -0.36186668 0.92000002 2.4853275e-39
-0.14807619 -0.36186668 0.92000002 2.3931515e-39
-0.1463238 -0.36186668 0.92000002 2.3946047e-39
-0.14457142 -0.36186668 0.92000002 2.4867863e-39
-0.14281905 -0.36186668 0.92000002 2.3031027e-39
-0.14137334 -0.36265334 0.92200005 2.1197974e-39
-0.13961715 -0.36265334 0.92200005 2.5793421e-39
-0.13786097 -0.36265334 0.92200005 3.0388671e-39
-0.13610476 -0.36265334 0.92200005 2.8548275e-39
-0.13434859 -0.36265334 0.92200005 2.6707978e-39
-0.13230476 -0.36186668 0.92000002 2.6707978e-39
-0.13055238 -0.36186668 0.92000002 2.6707866e-39
-0.1288 -0.36186668 0.92000002 2.6704166e-39
-0.12704763 -0.36186668 0.92000002 2.762262e-39
-0.12529524 -0.36186668 0.92000002 2.5793182e-39
-0.12354286 -0.36186668 0.92000002 2.3952997e-39
-0.12179048 -0.36186668 0.92000002 2.5786232e-39
-0.12029906 -0.36265334 0.92200005 2.8537569e-39
-0.11854286 -0.36265334 0.92200005 2.7629836e-39
-0.11716668 -0.36383334 0.92500007 2.6722201e-39
-0.11540477 -0.36383334 0.92500007 2.9462875e-39
-0.11327429 -0.36265334 0.92200005 3.2221639e-39
-0.1115181 -0.36265334 0.92200005 3.0381454e-39
-0.11011905 -0.36383334 0.92500007 2.76229e-39
-0.10835715 -0.36383334 0.92500007 2.6704643e-39
-0.10659525 -0.36383334 0.92500007 2.5778889e-39
-0.10483334 -0.36383334 0.92500007 2.6714956e-39
-0.10307144 -0.36383334 0.92500007 2.7636941e-39
-0.10130953 -0.36383334 0.92500007 2.7629808e-39
-0.099547625 -0.36383334 0.92500007 2.7619046e-39
-0.097785726 -0.36383334 0.92500007 2.7619046e-39
-0.096231431 -0.36462 0.92700005 2.8537443e-39
-0.094465718 -0.36462 0.92700005 2.9448666e-39
-0.092700005 -0.36462 0.92700005 3.0367175e-39
-0.090934284 -0.36462 0.92700005 3.2200451e-39
-0.089168578 -0.36462 0.92700005 3.4955306e-39
-0.087402858 -0.36462 0.92700005 3.0374083e-39
-0.085637145 -0.36462 0.92700005 2.5800175e-39
-0.083871432 -0.36462 0.92700005 2.6704124e-39
-0.082105719 -0.36462 0.92700005 2.7611745e-39
-0.080339998 -0.36462 0.92700005 2.7615375e-39
-0.078574292 -0.36462 0.92700005 2.8537401e-39
-0.076808572 -0.36462 0.92700005 2.7622718e-39
-0.075285718 -0.36580002 0.93000007 2.6711397e-39
-0.07351429 -0.36580002 0.93000007 2.5800091e-39
-0.071742855 -0.36580002 0.93000007 2.4885449e-39
-0.069971435 -0.36580002 0.93000007 2.8541059e-39
-0.068200007 -0.36580002 0.93000007 3.128539e-39
-0.066428579 -0.36580002 0.93000007 3.0359888e-39
-0.064657152 -0.36580002 0.93000007 2.9438002e-39
-0.062885717 -0.36580002 0.93000007 2.9448834e-39
-0.061114289 -0.36580002 0.93000007 2.9463085e-39
-0.059342861 -0.36580002 0.93000007 3.1288949e-39
-0.057571433 -0.36580002 0.93000007 3.3114813e-39
-0.055920001 -0.36658669 0.93200004 3.2214324e-39
-0.054144762 -0.36658669 0.93200004 3.2217926e-39
-0.052369528 -0.36658669 0.93200004 2.854452e-39
-0.050594285 -0.36658669 0.93200004 2.5792958e-39
-0.04881905 -0.36658669 0.93200004 2.6721991e-39
-0.047043812 -0.36658669 0.93200004 2.856589e-39
-0.045268573 -0.36658669 0.93200004 2.856233e-39
-0.043493334 -0.36658669 0.93200004 2.9462819e-39
-0.041852385 -0.36776668 0.93500006 3.2221541e-39
-0.040071432 -0.36776668 0.93500006 3.5902178e-39
-0.038290478 -0.36776668 0.93500006 3.4069111e-39
-0.036509525 -0.36776668 0.93500006 3.3154511e-39
-0.034728575 -0.36776668 0.93500006 2.8544982e-39
-0.032947619 -0.36776668 0.93500006 2.4874996e-39
-0.031066669 -0.36658669 0.93200004 3.0381398e-39
-0.029291429 -0.36658669 0.93200004 3.5891416e-39
-0.027516192 -0.36658669 0.93200004 3.1299543e-39
-0.025823811 -0.36776668 0.93500006 2.7626235e-39
-0.023965714 -0.36658669 0.93200004 3.1299781e-39
-0.022190478 -0.36658669 0.93200004 3.5891542e-39
-0.020415239 -0.36658669 0.93200004 3.3132875e-39
-0.018700002 -0.36776668 0.93500006 3.1292578e-39
-0.016919049 -0.36776668 0.93500006 3.2218122e-39
-0.015138096 -0.36776668 0.93500006 3.3139952e-39
-0.013357143 -0.36776668 0.93500006 3.1299557e-39
-0.011576191 -0.36776668 0.93500006 2.8544548e-39
-0.0097952392 -0.36776668 0.93500006 3.1299683e-39
-0.0080142869 -0.36776668 0.93500006 3.4054608e-39
-0.0062333336 -0.36776668 0.93500006 3.4054481e-39
-0.0044523813 -0.36776668 0.93500006 3.4972892e-39
-0.0026714287 -0.36776668 0.93500006 3.1306703e-39
-0.00089238095 -0.36855334 0.93700004 2.8562484e-39
0.00089238095 -0.36855334 0.93700004 2.8562569e-39
0.0026714287 -0.36776668 0.93500006 2.9484539e-39
0.0044523813 -0.36776668 0.93500006 2.9477406e-39
0.0062466664 -0.36855334 0.93700004 2.9462917e-39
0.0080314288 -0.36855334 0.93700004 3.3143371e-39
0.0098161902 -0.36855334 0.93700004 3.6813288e-39
0.011600953 -0.36855334 0.93700004 3.4058321e-39
0.013385714 -0.36855334 0.93700004 3.2221485e-39
0.015170476 -0.36855334 0.93700004 3.0399012e-39
0.017009525 -0.36973336 0.94000006 2.8555338e-39
0.018800002 -0.36973336 0.94000006 3.1310627e-39
0.020524763 -0.36855334 0.93700004 3.4969641e-39
0.022380954 -0.36973336 0.94000006 3.4980361e-39
0.024171429 -0.36973336 0.94000006 3.590222e-39
0.025961906 -0.36973336 0.94000006 3.2221541e-39
0.02766381 -0.36855334 0.93700004 2.8544618e-39
0.029448573 -0.36855334 0.93700004 3.1299767e-39
0.031233335 -0.36855334 0.93700004 3.4054888e-39
0.033018097 -0.36855334 0.93700004 3.3136589e-39
0.034802862 -0.36855334 0.93700004 3.2221821e-39
0.036587618 -0.36855334 0.93700004 3.4058545e-39
0.038372383 -0.36855334 0.93700004 3.5002039e-39
0.040157143 -0.36855334 0.93700004 3.4072951e-39
0.042076193 -0.36973336 0.94000006 3.2236255e-39
0.043866668 -0.36973336 0.94000006 3.1314326e-39
0.045657143 -0.36973336 0.94000006 3.1314368e-39
0.047447622 -0.36973336 0.94000006 3.3143946e-39
0.04934286 -0.37052003 0.94200003 3.4976984e-39
0.0513 -0.37170002 0.94500005 3.7735566e-39
0.053100005 -0.37170002 0.94500005 4.0494177e-39
0.054900002 -0.37170002 0.94500005 3.5905947e-39
0.056700002 -0.37170002 0.94500005 3.1317549e-39
0.058500003 -0.37170002 0.94500005 3.2235708e-39
0.0603 -0.37170002 0.94500005 3.4076117e-39
0.062100001 -0.37170002 0.94500005 3.5920128e-39
0.063900001 -0.37170002 0.94500005 3.7760566e-39
0.065700002 -0.37170002 0.94500005 3.6824428e-39
0.067714289 -0.37288001 0.94800007 3.5909492e-39
0.069520004 -0.37288001 0.94800007 3.8664389e-39
0.071325719 -0.37288001 0.94800007 4.0490351e-39
0.072900005 -0.37170002 0.94500005 3.9586359e-39
0.074700005 -0.37170002 0.94500005 3.7756922e-39
0.076500006 -0.37170002 0.94500005 3.5005557e-39
0.078299999 -0.37170002 0.94500005 3.2239814e-39
0.0801 -0.37170002 0.94500005 3.4080195e-39
0.081639998 -0.37052003 0.94200003 3.5906059e-39
0.083700001 -0.37170002 0.94500005 3.6838693e-39
0.085500002 -0.37170002 0.94500005 3.6842281e-39
0.08730001 -0.37170002 0.94500005 3.6838707e-39
0.089100003 -0.37170002 0.94500005 3.6835064e-39
0.090900004 -0.37170002 0.94500005 3.8671732e-39
0.092700005 -0.37170002 0.94500005 4.0512015e-39
0.094500005 -0.37170002 0.94500005 3.8675305e-39
0.096300006 -0.37170002 0.94500005 3.7760467e-39
0.098100007 -0.37170002 0.94500005 3.8678752e-39
0.0999 -0.37170002 0.94500005 3.9600807e-39
0.1017 -0.37170002 0.94500005 3.7760622e-39
0.10382858 -0.37288001 0.94800007 3.592024e-39
0.10563429 -0.37288001 0.94800007 3.775688e-39
0.10766667 -0.37366667 0.95000005 4.0515574e-39
0.10924572 -0.37288001 0.94800007 3.9597275e-39
0.11105144 -0.37288001 0.94800007 3.8678794e-39
0.11285715 -0.37288001 0.94800007 4.0508204e-39
0.11490477 -0.37366667 0.95000005 4.1415965e-39
0.11646858 -0.37288001 0.94800007 3.9600947e-39
0.11852381 -0.37366667 0.95000005 3.7757062e-39
0.12008001 -0.37288001 0.94800007 3.7749888e-39
0.12214286 -0.37366667 0.95000005 3.774616e-39
0.12369143 -0.37288001 0.94800007 3.7753209e-39
0.12549715 -0.37288001 0.94800007 3.8678822e-39
0.12730287 -0.37288001 0.94800007 3.9597275e-39
0.12938096 -0.37366667 0.95000005 4.1433971e-39
0.13119048 -0.37366667 0.95000005 3.9600849e-39
0.133 -0.37366667 0.95000005 3.774637e-39
0.13480952 -0.37366667 0.95000005 3.9594024e-39
0.13661906 -0.37366667 0.95000005 4.2348963e-39
0.13886572 -0.37484667 0.95300007 4.3260031e-39
0.14068097 -0.37484667 0.95300007 4.4182142e-39
0.1424962 -0.37484667 0.95300007 4.2349201e-39
0.14431143 -0.37484667 0.95300007 4.0515953e-39
0.14612667 -0.37484667 0.95300007 4.0512239e-39
0.1479419 -0.37484667 0.95300007 4.1448545e-39
0.14975715 -0.37484667 0.95300007 3.9611849e-39
0.15157239 -0.37484667 0.95300007 3.8693578e-39
0.15370953 -0.37563333 0.95500004 3.9615618e-39
0.15552858 -0.37563333 0.95500004 4.0537463e-39
0.15734763 -0.37563333 0.95500004 4.1452146e-39
0.15916666 -0.37563333 0.95500004 4.2370417e-39
0.16098572 -0.37563333 0.95500004 4.4199868e-39
0.16280477 -0.37563333 0.95500004 4.694766e-39
0.16462381 -0.37563333 0.95500004 4.3270569e-39
0.16644287 -0.37563333 0.95500004 4.0515546e-39
0.1682619 -0.37563333 0.95500004 4.0519176e-39
0.17008096 -0.37563333 0.95500004 4.052991e-39
0.1719 -0.37563333 0.95500004 4.1441076e-39
0.17371906 -0.37563333 0.95500004 4.235213e-39
0.17553809 -0.37563333 0.95500004 4.1447998e-39
0.17791429 -0.37681335 0.95800006 4.0536972e-39
0.17880096 -0.37484667 0.95300007 4.1451894e-39
0.1806162 -0.37484667 0.95300007 4.1448335e-39
0.18243143 -0.37484667 0.95300007 4.2359543e-39
0.18463333 -0.37563333 0.95500004 4.3270751e-39
0.18645239 -0.37563333 0.95500004 4.2352438e-39
0.18827143 -0.37563333 0.95500004 4.235234e-39
0.19009049 -0.37563333 0.95500004 4.2366606e-39
0.19190952 -0.37563333 0.95500004 4.3292261e-39
0.19372858 -0.37563333 0.95500004 4.3288814e-39
0.19616193 -0.37681335 0.95800006 4.2370403e-39
0.19798668 -0.37681335 0.95800006 4.3285129e-39
0.19981144 -0.37681335 0.95800006 4.5121909e-39
0.20163621 -0.37681335 0.95800006 4.3278094e-39
0.20346096 -0.37681335 0.95800006 4.235611e-39
0.20528573 -0.37681335 0.95800006 4.1444901e-39
0.20711049 -0.37681335 0.95800006 4.0533763e-39
0.20958953 -0.37799335 0.96100003 4.1448573e-39
0.21142001 -0.37799335 0.96100003 4.3285283e-39
0.21325049 -0.37799335 0.96100003 4.5111231e-39
0.21508096 -0.37799335 0.96100003 4.6944353e-39
0.21691144 -0.37799335 0.96100003 4.603676e-39
0.21874191 -0.37799335 0.96100003 4.5114776e-39
0.2205724 -0.37799335 0.96100003 4.4196393e-39
0.22286573 -0.37878001 0.96300006 4.3278066e-39
0.2247 -0.37878001 0.96300006 4.2366928e-39
0.22653429 -0.37878001 0.96300006 4.1448531e-39
0.22836858 -0.37878001 0.96300006 4.3281611e-39
0.23020287 -0.37878001 0.96300006 4.5114692e-39
0.23203714 -0.37878001 0.96300006 4.6029418e-39
0.23387145 -0.37878001 0.96300006 4.7866212e-39
0.23521619 -0.37799335 0.96100003 4.6040348e-39
0.23754002 -0.37878001 0.96300006 4.5122077e-39
0.23937429 -0.37878001 0.96300006 4.4218155e-39
0.24120858 -0.37878001 0.96300006 4.4221644e-39
0.24304287 -0.37878001 0.96300006 4.4221546e-39
0.24487714 -0.37878001 0.96300006 4.5143559e-39
