# .PCD v0.7 - Point Cloud Data file format
VERSION 0.7
FIELDS x y z rgb
SIZE 4 4 4 4
TYPE F F F F
COUNT 1 1 1 1
WIDTH 1035
HEIGHT 1
VIEWPOINT 0 0 0 0 1 0 0
POINTS 1035
DATA ascii
0.10745429 -1.1489344 2.8930001 9.4950667e-39
0.11296476 -1.1489344 2.8930001 9.3110187e-39
0.11847524 -1.1489344 2.8930001 9.2191986e-39
0.12398572 -1.1489344 2.8930001 9.3103321e-39
0.1294962 -1.1489344 2.8930001 9.4932814e-39
0.13500667 -1.1489344 2.8930001 9.4018019e-39
0.14051715 -1.1489344 2.8930001 9.3110398e-39
0.14602762 -1.1489344 2.8930001 9.0351731e-39
0.15028097 -1.1394029 2.8690002 8.7603813e-39
0.15574571 -1.1394029 2.8690002 8.852214e-39
0.16121049 -1.1394029 2.8690002 9.0380388e-39
0.16667525 -1.1394029 2.8690002 9.0358878e-39
0.1707 -1.1298714 2.845 9.0384031e-39
0.17760478 -1.1394029 2.8690002 8.9447782e-39
0.18153811 -1.1298714 2.845 8.8518693e-39
0.18695715 -1.1298714 2.845 9.1273786e-39
0.19237618 -1.1298714 2.845 9.4032424e-39
0.19779523 -1.1298714 2.845 9.1277359e-39
0.20321429 -1.1298714 2.845 8.8522224e-39
0.20863333 -1.1298714 2.845 8.9429761e-39
0.2158581 -1.1394029 2.8690002 9.0344683e-39
0.22132288 -1.1394029 2.8690002 9.1270381e-39
0.22678763 -1.1394029 2.8690002 9.311774e-39
0.2322524 -1.1394029 2.8690002 9.4957939e-39
0.23771715 -1.1394029 2.8690002 9.7727396e-39
0.24318191 -1.1394029 2.8690002 9.8642205e-39
0.24656665 -1.1298714 2.845 9.9560588e-39
0.2519857 -1.1298714 2.845 9.8660212e-39
0.2553238 -1.1207372 2.822 9.8649646e-39
0.26282379 -1.1298714 2.845 1.0049731e-38
0.26824287 -1.1298714 2.845 1.023484e-38
0.27366191 -1.1298714 2.845 1.0695816e-38
0.27908096 -1.1298714 2.845 1.115714e-38
0.2845 -1.1298714 2.845 1.1435153e-38
0.28991905 -1.1298714 2.845 1.1713175e-38
0.29533809 -1.1298714 2.845 1.2078729e-38
0.30075714 -1.1298714 2.845 1.2444644e-38
0.30370095 -1.1207372 2.822 1.2628684e-38
0.30907619 -1.1207372 2.822 1.2813068e-38
0.31701428 -1.1298714 2.845 1.2909563e-38
0.32243332 -1.1298714 2.845 1.3094303e-38
0.32785237 -1.1298714 2.845 1.3369087e-38
0.33057716 -1.1207372 2.822 1.3644237e-38
0.33869046 -1.1298714 2.845 1.3552046e-38
0.34132764 -1.1207372 2.822 1.3368024e-38
0.34670284 -1.1207372 2.822 1.3551345e-38
0.35207811 -1.1207372 2.822 1.373465e-38
0.35745332 -1.1207372 2.822 1.3643167e-38
0.36578572 -1.1298714 2.845 1.3551686e-38
0.37120476 -1.1298714 2.845 1.3553116e-38
0.37357903 -1.1207372 2.822 1.3552402e-38
0.38204286 -1.1298714 2.845 1.3827912e-38
0.3874619 -1.1298714 2.845 1.4103416e-38
0.39288095 -1.1298714 2.845 1.4102697e-38
0.39829999 -1.1298714 2.845 1.4194175e-38
0.40371904 -1.1298714 2.845 1.4194177e-38
0.40913808 -1.1298714 2.845 1.4287093e-38
0.41455713 -1.1298714 2.845 1.4102351e-38
0.4199762 -1.1298714 2.845 1.3918314e-38
0.42539525 -1.1298714 2.845 1.3827548e-38
0.4308143 -1.1298714 2.845 1.3828623e-38
0.43623334 -1.1298714 2.845 1.3737146e-38
0.44165239 -1.1298714 2.845 1.364639e-38
0.44707143 -1.1298714 2.845 1.3645675e-38
0.45249045 -1.1298714 2.845 1.3645312e-38
0.45790952 -1.1298714 2.845 1.3827544e-38
0.46332857 -1.1298714 2.845 1.4011572e-38
0.46874762 -1.1298714 2.845 1.4011213e-38
0.47416666 -1.1298714 2.845 1.4011928e-38
0.47958571 -1.1298714 2.845 1.3918656e-38
0.48909622 -1.1394029 2.8690002 1.3827179e-38
0.49456102 -1.1394029 2.8690002 1.3552392e-38
0.50002575 -1.1394029 2.8690002 1.3369451e-38
0.50549048 -1.1394029 2.8690002 1.3550623e-38
0.51095527 -1.1394029 2.8690002 1.3732492e-38
0.51642001 -1.1394029 2.8690002 1.3733562e-38
0.5218848 -1.1394029 2.8690002 1.3734636e-38
0.52734953 -1.1394029 2.8690002 1.3734635e-38
0.53281432 -1.1394029 2.8690002 1.3826477e-38
0.53827912 -1.1394029 2.8690002 1.3825767e-38
0.54374385 -1.1394029 2.8690002 1.3825042e-38
0.54920864 -1.1394029 2.8690002 1.3733559e-38
0.55467337 -1.1394029 2.8690002 1.3735352e-38
0.56013811 -1.1394029 2.8690002 1.3642082e-38
0.5656029 -1.1394029 2.8690002 1.3552752e-38
0.57106763 -1.1394029 2.8690002 1.355203e-38
0.57653242 -1.1394029 2.8690002 1.3640626e-38
0.58199716 -1.1394029 2.8690002 1.3734244e-38
0.58746195 -1.1394029 2.8690002 1.3920091e-38
0.59292674 -1.1394029 2.8690002 1.3736444e-38
0.59839147 -1.1394029 2.8690002 1.3546669e-38
0.60385627 -1.1394029 2.8690002 1.3827551e-38
0.609321 -1.1394029 2.8690002 1.4098392e-38
0.61478573 -1.1394029 2.8690002 1.3732127e-38
0.62543905 -1.1489344 2.8930001 1.3459483e-38
0.6309495 -1.1489344 2.8930001 1.3550954e-38
0.63646001 -1.1489344 2.8930001 1.3642788e-38
0.64197052 -1.1489344 2.8930001 1.3642071e-38
0.64748096 -1.1489344 2.8930001 1.3549522e-38
0.65299147 -1.1489344 2.8930001 1.3549886e-38
0.65850192 -1.1489344 2.8930001 1.3642086e-38
0.66401237 -1.1489344 2.8930001 1.3549899e-38
0.66952288 -1.1489344 2.8930001 1.3458055e-38
0.67503333 -1.1489344 2.8930001 1.3090705e-38
0.68054384 -1.1489344 2.8930001 1.2816633e-38
0.68605435 -1.1489344 2.8930001 1.3091424e-38
0.69156474 -1.1489344 2.8930001 1.3366926e-38
0.69707525 -1.1489344 2.8930001 1.3182174e-38
0.70258576 -1.1489344 2.8930001 1.3089267e-38
0.70809621 -1.1489344 2.8930001 1.2999231e-38
0.71952665 -1.1584657 2.9170001 1.2909543e-38
0.71911716 -1.1489344 2.8930001 1.263188e-38
0.72462761 -1.1489344 2.8930001 1.2449288e-38
0.73013812 -1.1489344 2.8930001 1.2724082e-38
0.73564857 -1.1489344 2.8930001 1.3091414e-38
0.74115908 -1.1489344 2.8930001 1.3272924e-38
0.74666959 -1.1489344 2.8930001 1.3549508e-38
0.75841999 -1.1584657 2.9170001 1.299778e-38
0.75769049 -1.1489344 2.8930001 1.2446413e-38
0.76320094 -1.1489344 2.8930001 1.2538253e-38
0.76871145 -1.1489344 2.8930001 1.2721925e-38
0.77422196 -1.1489344 2.8930001 1.2813762e-38
0.77973241 -1.1489344 2.8930001 1.2995992e-38
0.78524292 -1.1489344 2.8930001 1.2722274e-38
0.79731333 -1.1584657 2.9170001 1.244855e-38
0.8028695 -1.1584657 2.9170001 1.2446745e-38
0.80842572 -1.1584657 2.9170001 1.2536078e-38
0.81398195 -1.1584657 2.9170001 1.2721911e-38
0.81953812 -1.1584657 2.9170001 1.2906301e-38
0.82509428 -1.1584657 2.9170001 1.2628645e-38
0.83776951 -1.1683943 2.9420002 1.2353856e-38
0.84337336 -1.1683943 2.9420002 1.2170904e-38
0.84897715 -1.1683943 2.9420002 1.1987949e-38
0.854581 -1.1683943 2.9420002 1.198472e-38
0.86018479 -1.1683943 2.9420002 1.1984367e-38
0.86578864 -1.1683943 2.9420002 1.2536462e-38
0.87139243 -1.1683943 2.9420002 1.3088534e-38
0.87699622 -1.1683943 2.9420002 1.2720458e-38
0.88260001 -1.1683943 2.9420002 1.2352765e-38
0.88820386 -1.1683943 2.9420002 1.2168744e-38
0.89380765 -1.1683943 2.9420002 1.2076551e-38
0.89941144 -1.1683943 2.9420002 1.2077988e-38
0.90501529 -1.1683943 2.9420002 1.2079061e-38
0.91061908 -1.1683943 2.9420002 1.21691e-38
0.91622293 -1.1683943 2.9420002 1.2258796e-38
0.9139933 -1.1584657 2.9170001 1.1801426e-38
0.90441811 -1.1394029 2.8690002 1.1343669e-38
0.9098829 -1.1394029 2.8690002 1.124895e-38
0.87195712 -1.0853914 2.733 1.1250377e-38
0.87716287 -1.0853914 2.733 1.1064187e-38
0.87526578 -1.0766543 2.7110002 1.0969841e-38
0.88042957 -1.0766543 2.7110002 1.0693976e-38
0.88559335 -1.0766543 2.7110002 1.0418108e-38
0.8907572 -1.0766543 2.7110002 1.0141882e-38
0.89592099 -1.0766543 2.7110002 9.8656583e-39
0.90108484 -1.0766543 2.7110002 9.4050473e-39
0.89922857 -1.0683143 2.6900001 9.0377053e-39
0.90435237 -1.0683143 2.6900001 9.5890784e-39
0.90947622 -1.0683143 2.6900001 1.0232277e-38
0.91460001 -1.0683143 2.6900001 1.04163e-38
0.91972381 -1.0683143 2.6900001 1.0692167e-38
0.92484766 -1.0683143 2.6900001 1.0508498e-38
0.92271149 -1.0599743 2.6690001 1.0416668e-38
0.92779529 -1.0599743 2.6690001 1.0692541e-38
0.9258886 -1.0520315 2.6490002 1.1060603e-38
0.93093437 -1.0520315 2.6490002 1.0785459e-38
0.93598002 -1.0520315 2.6490002 1.060251e-38
0.93392098 -1.0440886 2.6290002 1.0878021e-38
0.9389286 -1.0440886 2.6290002 1.1060603e-38
0.9367553 -1.0361458 2.6090002 1.0416667e-38
0.94172484 -1.0361458 2.6090002 9.8649352e-39
0.94669431 -1.0361458 2.6090002 9.9567693e-39
0.95166385 -1.0361458 2.6090002 1.0048965e-38
0.95663339 -1.0361458 2.6090002 9.6801894e-39
0.96160293 -1.0361458 2.6090002 9.3114083e-39
0.9665724 -1.0361458 2.6090002 9.6798237e-39
0.96409434 -1.0282029 2.5890002 1.0048219e-38
0.96191436 -1.0206572 2.5700002 1.0232946e-38
0.96680957 -1.0206572 2.5700002 1.0501657e-38
0.96452099 -1.0131115 2.5510001 1.0318367e-38
0.96938002 -1.0131115 2.5510001 1.0226898e-38
0.9669829 -1.0055656 2.5320001 1.0413445e-38
0.97180569 -1.0055656 2.5320001 1.0508151e-38
0.96968573 -0.99841726 2.5140002 1.1336824e-38
0.97447431 -0.99841726 2.5140002 1.2257687e-38
0.97225142 -0.99126858 2.4960001 1.2165849e-38
0.96996003 -0.98412001 2.4780002 1.2166922e-38
0.97468007 -0.98412001 2.4780002 1.2167637e-38
0.97228575 -0.97697151 2.46 1.2076522e-38
0.98412001 -0.98412001 2.4780002 1.198433e-38
0.98165715 -0.97697151 2.46 1.1800662e-38
0.98634291 -0.97697151 2.46 1.2167648e-38
0.99102855 -0.97697151 2.46 1.2534992e-38
0.99571425 -0.97697151 2.46 1.2259487e-38
1.0004001 -0.97697151 2.46 1.198471e-38
0.99813998 -0.97022003 2.4430001 1.2351706e-38
1.0027933 -0.97022003 2.4430001 1.2719035e-38
1.0004362 -0.96346861 2.4260001 1.262683e-38
0.99801433 -0.95671719 2.4090002 1.2534995e-38
1.0026029 -0.95671719 2.4090002 1.2719026e-38
1.0000839 -0.94996583 2.3920002 1.2903055e-38
1.0046401 -0.94996583 2.3920002 1.2351325e-38
1.0091963 -0.94996583 2.3920002 1.1800675e-38
1.0069715 -0.94361144 2.3760002 1.1892157e-38
1.0114971 -0.94361144 2.3760002 1.1983989e-38
1.0160229 -0.94361144 2.3760002 1.2075821e-38
1.0205486 -0.94361144 2.3760002 1.2259481e-38
1.01774 -0.93686002 2.3590002 1.2168711e-38
1.0153 -0.93050575 2.3430002 1.1986131e-38
1.019763 -0.93050575 2.3430002 1.2444608e-38
1.0242258 -0.93050575 2.3430002 1.2995259e-38
1.0286885 -0.93050575 2.3430002 1.2719033e-38
1.0260963 -0.92415148 2.3270001 1.2538232e-38
1.0305287 -0.92415148 2.3270001 1.2629708e-38
1.0282894 -0.91819429 2.312 1.2721541e-38
1.0326933 -0.91819429 2.312 1.2721181e-38
1.0303687 -0.91223717 2.2970002 1.2813379e-38
1.0347439 -0.91223717 2.2970002 1.2904143e-38
1.0391191 -0.91223717 2.2970002 1.2995618e-38
1.0362258 -0.90588289 2.2810001 1.3178572e-38
1.0405706 -0.90588289 2.2810001 1.3360448e-38
1.0380439 -0.89992571 2.266 1.3270764e-38
1.0423601 -0.89992571 2.266 1.3180007e-38
1.0466762 -0.89992571 2.266 1.3089249e-38
1.0509924 -0.89992571 2.266 1.2998492e-38
1.0553086 -0.89992571 2.266 1.3182167e-38
1.0530782 -0.89436573 2.2520001 1.336619e-38
1.0503247 -0.88840854 2.237 1.2814095e-38
1.0479857 -0.88284856 2.223 1.2263085e-38
1.05222 -0.88284856 2.223 1.2722265e-38
1.0564543 -0.88284856 2.223 1.3181444e-38
1.0535315 -0.87689149 2.2080002 1.2814462e-38
1.0577372 -0.87689149 2.2080002 1.2540385e-38
1.0619429 -0.87689149 2.2080002 1.2998841e-38
1.0661486 -0.87689149 2.2080002 1.3549132e-38
1.0703543 -0.87689149 2.2080002 1.3456577e-38
1.0677466 -0.87133145 2.194 1.3272198e-38
1.0719256 -0.87133145 2.194 1.3827168e-38
1.0697285 -0.86616856 2.181 1.4288146e-38
1.0738828 -0.86616856 2.181 1.4103765e-38
1.0711172 -0.86060858 2.1670001 1.3919011e-38
1.0752448 -0.86060858 2.1670001 1.3826811e-38
1.0793724 -0.86060858 2.1670001 1.373246e-38
1.0765001 -0.8550486 2.1530001 1.3456949e-38
1.0806011 -0.8550486 2.1530001 1.3181439e-38
1.0847019 -0.8550486 2.1530001 1.3549494e-38
1.0888029 -0.8550486 2.1530001 1.3826084e-38
1.0929039 -0.8550486 2.1530001 1.4010839e-38
1.0903809 -0.84988576 2.1400001 1.4287428e-38
1.0944571 -0.84988576 2.1400001 1.3827181e-38
1.0985334 -0.84988576 2.1400001 1.3458411e-38
1.0959115 -0.84472287 2.1270001 1.3734283e-38
1.0932401 -0.83956003 2.1140001 1.4010134e-38
1.0972667 -0.83956003 2.1140001 1.3458749e-38
1.094521 -0.83439714 2.1010001 1.300065e-38
1.0985229 -0.83439714 2.1010001 1.3367636e-38
1.1093467 -0.83956003 2.1140001 1.3826452e-38
1.1065267 -0.83439714 2.1010001 1.3918645e-38
1.1174001 -0.83956003 2.1140001 1.4011199e-38
1.1145306 -0.83439714 2.1010001 1.3919008e-38
1.1254534 -0.83956003 2.1140001 1.3827165e-38
1.1294801 -0.83956003 2.1140001 1.3551295e-38
-1.6475104 -1.1153619 2.822 5.993446e-39
-1.6555191 -1.1244525 2.845 6.0859822e-39
-1.6501 -1.1244525 2.845 6.177103e-39
-1.6585554 -1.1339382 2.8690002 5.9026741e-39
-1.6669191 -1.1434239 2.8930001 5.7164864e-39
-1.6751914 -1.1529095 2.9170001 5.8047304e-39
-1.6839448 -1.1627905 2.9420002 5.8965686e-39
-1.692603 -1.1726714 2.9670002 5.8965729e-39
-1.7017343 -1.1829476 2.993 5.9894831e-39
-1.6960332 -1.1829476 2.993 5.9905579e-39
-1.7050163 -1.1932238 3.0190001 6.0823948e-39
-1.714463 -1.2038953 3.0460002 5.7161305e-39
-1.7238067 -1.2145667 3.0730002 5.3470018e-39
-1.7336066 -1.2256334 3.1010001 5.4377681e-39
-1.7277001 -1.2256334 3.1010001 5.527454e-39
-1.7528867 -1.2477667 3.1570001 5.5285316e-39
-1.7468734 -1.2477667 3.1570001 5.5281561e-39
-1.7568516 -1.2592286 3.1860001 5.1604385e-39
-1.7507828 -1.2592286 3.1860001 4.8849264e-39
-1.7447144 -1.2592286 3.1860001 4.7016086e-39
-1.7883058 -1.2951953 3.2770002 4.5172187e-39
-1.7994658 -1.307843 3.3090003 4.3328303e-39
-1.7931629 -1.307843 3.3090003 4.1488104e-39
-1.80414 -1.3204905 3.3410001 3.7800432e-39
-1.8327525 -1.346181 3.4060001 3.4141124e-39
-1.8262649 -1.346181 3.4060001 4.0572958e-39
-1.837943 -1.359619 3.4400001 4.699445e-39
-1.8500239 -1.3734524 3.4750001 4.3317611e-39
-1.8619715 -1.3872858 3.5100002 3.9651155e-39
-1.8743144 -1.4015144 3.5460002 3.77999e-39
-1.86756 -1.4015144 3.5460002 3.5963302e-39
-1.8802221 -1.4161382 3.5830002 3.7792964e-39
-1.8733972 -1.4161382 3.5830002 3.9626072e-39
-1.9061649 -1.4461763 3.6590002 3.6867406e-39
-1.8991952 -1.4461763 3.6590002 3.5034227e-39
-1.8922257 -1.4461763 3.6590002 3.5037759e-39
-1.9259601 -1.4773999 3.7380002 3.5956254e-39
-1.9398867 -1.4936049 3.7790003 3.1364619e-39
-1.9541686 -1.5102048 3.8210001 2.6744075e-39
-1.9468906 -1.5102048 3.8210001 2.4903708e-39
-1.96144 -1.5272 3.8640001 2.3059711e-39
-1.9540799 -1.5272 3.8640001 2.3052439e-39
-1.94672 -1.5272 3.8640001 2.39565e-39
-1.93936 -1.5272 3.8640001 2.2109099e-39
-1.932 -1.5272 3.8640001 2.0279647e-39
-1.9246401 -1.5272 3.8640001 2.028692e-39
-2.4343107 -1.9390382 4.9060001 2.0290465e-39
-2.3913543 -1.9121621 4.8380003 1.9379243e-39
-2.3491497 -1.8856812 4.7710004 1.9361349e-39
-2.3400621 -1.8856812 4.7710004 2.6708244e-39
-2.3309743 -1.8856812 4.7710004 3.4969754e-39
-2.3544936 -1.9121621 4.8380003 2.8537583e-39
-2.3452783 -1.9121621 4.8380003 2.3038216e-39
-2.3360631 -1.9121621 4.8380003 2.3052579e-39
-2.3268478 -1.9121621 4.8380003 2.3949312e-39
-2.3502076 -1.9390382 4.9060001 2.5789525e-39
-2.3408628 -1.9390382 4.9060001 2.7622802e-39
-2.3315182 -1.9390382 4.9060001 2.1212408e-39
-2.3221734 -1.9390382 4.9060001 1.4776664e-39
-2.3128285 -1.9390382 4.9060001 2.6708034e-39
-2.3368201 -1.9671 4.9770002 3.8664599e-39
-2.3273399 -1.9671 4.9770002 3.1317788e-39
-2.3178601 -1.9671 4.9770002 2.3963703e-39
-2.2754498 -1.9390382 4.9060001 2.763348e-39
-2.2989001 -1.9671 4.9770002 3.2218164e-39
-2.2894201 -1.9671 4.9770002 3.1285544e-39
-2.2474153 -1.9390382 4.9060001 3.0367259e-39
-2.2380705 -1.9390382 4.9060001 3.035298e-39
-2.2287259 -1.9390382 4.9060001 3.0403034e-39
-2.2515001 -1.9671 4.9770002 2.6707936e-39
-2.2420201 -1.9671 4.9770002 2.3960102e-39
-2.2325399 -1.9671 4.9770002 2.6725971e-39
-2.2230601 -1.9671 4.9770002 2.9481092e-39
-2.1820018 -1.9390382 4.9060001 2.0297598e-39
-2.1726573 -1.9390382 4.9060001 1.1113894e-39
-2.1333277 -1.9121621 4.8380003 1.7545826e-39
-2.1241124 -1.9121621 4.8380003 2.3977996e-39
-2.0856087 -1.8856812 4.7710004 2.6740334e-39
-2.0765212 -1.8856812 4.7710004 2.9477504e-39
-2.0674336 -1.8856812 4.7710004 2.6726069e-39
-2.0583458 -1.8856812 4.7710004 2.4878471e-39
-2.0492582 -1.8856812 4.7710004 2.8551779e-39
-2.0401707 -1.8856812 4.7710004 3.314012e-39
-2.0310831 -1.8856812 4.7710004 3.4951859e-39
-2.0503907 -1.9121621 4.8380003 3.7717686e-39
-2.0411754 -1.9121621 4.8380003 3.6810107e-39
-2.03196 -1.9121621 4.8380003 3.681368e-39
-2.0227449 -1.9121621 4.8380003 3.4062203e-39
-2.0135295 -1.9121621 4.8380003 3.1310823e-39
-2.0324857 -1.9390382 4.9060001 2.4889611e-39
-2.0231409 -1.9390382 4.9060001 1.9379397e-39
-2.0429401 -1.9671 4.9770002 2.3985451e-39
-2.0334601 -1.9671 4.9770002 2.9499056e-39
-1.9951067 -1.9390382 4.9060001 2.5829126e-39
-1.9582382 -1.9121621 4.8380003 2.3084851e-39
-1.9220315 -1.8856812 4.7710004 2.6772662e-39
-1.912944 -1.8856812 4.7710004 3.1357262e-39
-1.9038564 -1.8856812 4.7710004 3.6863819e-39
-1.8947687 -1.8856812 4.7710004 4.3263563e-39
-1.8599906 -1.8599906 4.7060003 2.9502546e-39
-1.8510268 -1.8599906 4.7060003 1.6645632e-39
-1.842063 -1.8599906 4.7060003 2.3996115e-39
-1.8330991 -1.8599906 4.7060003 3.2254275e-39
-1.8241354 -1.8599906 4.7060003 3.5909913e-39
-1.8151716 -1.8599906 4.7060003 4.0508778e-39
-1.8062078 -1.8599906 4.7060003 3.5934856e-39
-1.7972438 -1.8599906 4.7060003 3.1343109e-39
-1.78828 -1.8599906 4.7060003 3.3179861e-39
-1.7793163 -1.8599906 4.7060003 3.5934786e-39
-1.7703525 -1.8599906 4.7060003 4.1444775e-39
-1.7613887 -1.8599906 4.7060003 4.6947773e-39
-1.7524248 -1.8599906 4.7060003 4.2352452e-39
-1.7434611 -1.8599906 4.7060003 3.776788e-39
-1.7344973 -1.8599906 4.7060003 3.6867504e-39
-1.7255335 -1.8599906 4.7060003 3.5949149e-39
-1.7165695 -1.8599906 4.7060003 3.5030794e-39
-1.7076057 -1.8599906 4.7060003 3.5023577e-39
-1.6759019 -1.8350905 4.6430001 4.235604e-39
-1.6670581 -1.8350905 4.6430001 4.9713655e-39
-1.6582142 -1.8350905 4.6430001 4.3303121e-39
-1.6273458 -1.8105859 4.5810003 3.7796663e-39
-1.6405268 -1.8350905 4.6430001 2.8616799e-39
-1.6316829 -1.8350905 4.6430001 2.0351548e-39
-1.6011688 -1.8105859 4.5810003 2.3106571e-39
-1.6139953 -1.8350905 4.6430001 2.6776473e-39
-1.6051514 -1.8350905 4.6430001 2.4017905e-39
-1.5749915 -1.8105859 4.5810003 2.2181111e-39
-1.5662658 -1.8105859 4.5810003 3.5970701e-39
-1.5371401 -1.7868716 4.5210004 5.0642884e-39
-1.5285286 -1.7868716 4.5210004 4.5114832e-39
-1.5199172 -1.7868716 4.5210004 3.9615548e-39
-1.5113058 -1.7868716 4.5210004 4.1466692e-39
-1.5026944 -1.7868716 4.5210004 4.3303289e-39
-1.4940829 -1.7868716 4.5210004 4.0548127e-39
-1.4854715 -1.7868716 4.5210004 3.7810914e-39
-1.47686 -1.7868716 4.5210004 3.2322224e-39
-1.4682487 -1.7868716 4.5210004 2.7712653e-39
-1.4409115 -1.7639477 4.4630003 3.3212161e-39
-1.4324106 -1.7639477 4.4630003 3.8722277e-39
-1.4239097 -1.7639477 4.4630003 3.9640618e-39
-1.4154086 -1.7639477 4.4630003 4.1477285e-39
-1.4069077 -1.7639477 4.4630003 3.7807425e-39
-1.3984067 -1.7639477 4.4630003 3.4134019e-39
-1.3899058 -1.7639477 4.4630003 3.8729395e-39
-1.3814049 -1.7639477 4.4630003 4.4235924e-39
-1.3907458 -1.7868716 4.5210004 4.4235924e-39
-1.3644029 -1.7639477 4.4630003 4.515788e-39
-1.3559021 -1.7639477 4.4630003 4.6083424e-39
-1.347401 -1.7639477 4.4630003 4.7001723e-39
-1.3389001 -1.7639477 4.4630003 4.6083311e-39
-1.3303992 -1.7639477 4.4630003 4.5164999e-39
-1.3218981 -1.7639477 4.4630003 5.067517e-39
-1.3133973 -1.7639477 4.4630003 5.7096508e-39
-1.3048962 -1.7639477 4.4630003 5.1575645e-39
-1.2963953 -1.7639477 4.4630003 4.6980353e-39
-1.2878944 -1.7639477 4.4630003 5.2486965e-39
-1.2793933 -1.7639477 4.4630003 5.8000668e-39
-1.2708925 -1.7639477 4.4630003 5.0660989e-39
-1.2462686 -1.7414191 4.4060001 4.3339205e-39
-1.2221429 -1.7192858 4.3500004 4.5197383e-39
-1.2138573 -1.7192858 4.3500004 4.7034121e-39
-1.2055715 -1.7192858 4.3500004 4.4300608e-39
-1.1972859 -1.7192858 4.3500004 4.2438786e-39
-1.189 -1.7192858 4.3500004 4.2428038e-39
-1.1807144 -1.7192858 4.3500004 4.2428066e-39
-1.1724286 -1.7192858 4.3500004 4.4264818e-39
-1.164143 -1.7192858 4.3500004 4.610143e-39
-1.1558573 -1.7192858 4.3500004 4.6115681e-39
-1.1475714 -1.7192858 4.3500004 4.7026974e-39
-1.1392858 -1.7192858 4.3500004 4.793828e-39
-1.131 -1.7192858 4.3500004 4.976776e-39
-1.1227144 -1.7192858 4.3500004 4.7923833e-39
-1.1005943 -1.6979429 4.296 4.7012653e-39
-1.1061429 -1.7192858 4.3500004 4.7016254e-39
-1.0842285 -1.6979429 4.296 4.7034149e-39
-1.0760458 -1.6979429 4.296 4.7952461e-39
-1.0678629 -1.6979429 4.296 4.8863796e-39
-1.0730001 -1.7192858 4.3500004 5.0693499e-39
-1.0514971 -1.6979429 4.296 5.2530111e-39
-1.0433142 -1.6979429 4.296 5.3448368e-39
-1.0481429 -1.7192858 4.3500004 5.43811e-39
-1.0398573 -1.7192858 4.3500004 4.6119535e-39
-1.0315715 -1.7192858 4.3500004 3.8769192e-39
-1.0232857 -1.7192858 4.3500004 4.5197761e-39
-1.0024 -1.6979429 4.296 5.1636952e-39
-0.9942171 -1.6979429 4.296 5.2558838e-39
-0.98603433 -1.6979429 4.296 5.4424274e-39
-0.96578765 -1.6769952 4.243 5.994518e-39
-0.94619435 -1.6568383 4.1920004 6.5473289e-39
-0.93820965 -1.6568383 4.1920004 6.7317215e-39
-0.91912955 -1.6370763 4.1420002 7.0068707e-39
-0.90046006 -1.6177098 4.0930004 7.6497205e-39
-0.88219523 -1.5987381 4.0450001 8.2925718e-39
-0.8744905 -1.5987381 4.0450001 7.0987132e-39
-0.86678571 -1.5987381 4.0450001 5.9963271e-39
-0.85908097 -1.5987381 4.0450001 6.4555046e-39
-0.85137618 -1.5987381 4.0450001 7.0065161e-39
-0.84367144 -1.5987381 4.0450001 7.0079497e-39
-0.83596665 -1.5987381 4.0450001 7.0997824e-39
-0.82826191 -1.5987381 4.0450001 6.91611e-39
-0.82055718 -1.5987381 4.0450001 6.7320718e-39
-0.81285238 -1.5987381 4.0450001 7.7422539e-39
-0.80514765 -1.5987381 4.0450001 8.7524528e-39
-0.79744285 -1.5987381 4.0450001 7.5586011e-39
-0.78973812 -1.5987381 4.0450001 6.3647397e-39
-0.78203332 -1.5987381 4.0450001 6.8242759e-39
-0.77432859 -1.5987381 4.0450001 7.2827415e-39
-0.7666238 -1.5987381 4.0450001 7.4657006e-39
-0.758919 -1.5987381 4.0450001 7.6500807e-39
-0.75121433 -1.5987381 4.0450001 7.4671201e-39
-0.74350953 -1.5987381 4.0450001 7.2834534e-39
-0.7358048 -1.5987381 4.0450001 7.4674873e-39
-0.7281 -1.5987381 4.0450001 7.6511583e-39
-0.72039527 -1.5987381 4.0450001 7.2838163e-39
-0.71269047 -1.5987381 4.0450001 6.915747e-39
-0.70498568 -1.5987381 4.0450001 7.2827205e-39
-0.68917906 -1.5801619 3.9980001 7.6507841e-39
-0.68957615 -1.5987381 4.0450001 7.4685523e-39
-0.68187147 -1.5987381 4.0450001 7.2856029e-39
-0.67416668 -1.5987381 4.0450001 7.2863246e-39
-0.66646194 -1.5987381 4.0450001 7.2856072e-39
-0.65875715 -1.5987381 4.0450001 7.7440672e-39
-0.65105242 -1.5987381 4.0450001 8.2036048e-39
-0.64334762 -1.5987381 4.0450001 7.7447888e-39
-0.63564283 -1.5987381 4.0450001 7.285617e-39
-0.62793809 -1.5987381 4.0450001 6.8268038e-39
-0.6202333 -1.5987381 4.0450001 6.3676221e-39
-0.61252862 -1.5987381 4.0450001 6.8271541e-39
-0.60482383 -1.5987381 4.0450001 7.3781685e-39
-0.59711909 -1.5987381 4.0450001 7.5611235e-39
-0.5894143 -1.5987381 4.0450001 7.744793e-39
-0.5817095 -1.5987381 4.0450001 7.6533135e-39
-0.57400477 -1.5987381 4.0450001 7.5604046e-39
-0.56629997 -1.5987381 4.0450001 7.7437196e-39
-0.55859524 -1.5987381 4.0450001 8.0188646e-39
-0.55089045 -1.5987381 4.0450001 7.7429966e-39
-0.54318571 -1.5987381 4.0450001 7.4678488e-39
-0.53548098 -1.5987381 4.0450001 7.8359083e-39
-0.52777624 -1.5987381 4.0450001 8.2036146e-39
-0.52007145 -1.5987381 4.0450001 8.2958144e-39
-0.51236665 -1.5987381 4.0450001 8.3876401e-39
-0.50466192 -1.5987381 4.0450001 8.2961549e-39
-0.49695712 -1.5987381 4.0450001 8.2954333e-39
-0.48925239 -1.5987381 4.0450001 8.7542492e-39
-0.48154762 -1.5987381 4.0450001 9.2145085e-39
-0.47384286 -1.5987381 4.0450001 8.0206541e-39
-0.46613809 -1.5987381 4.0450001 6.8267954e-39
-0.45843333 -1.5987381 4.0450001 7.3781699e-39
-0.4507286 -1.5987381 4.0450001 8.021017e-39
-0.44302383 -1.5987381 4.0450001 7.9277452e-39
-0.43531907 -1.5987381 4.0450001 7.9291829e-39
-0.42761427 -1.5987381 4.0450001 7.8373516e-39
-0.41990951 -1.5987381 4.0450001 7.7451588e-39
-0.41220477 -1.5987381 4.0450001 7.8348433e-39
-0.40930003 -1.6177098 4.0930004 7.927762e-39
-0.40150383 -1.6177098 4.0930004 8.0206821e-39
-0.38909048 -1.5987381 4.0450001 8.112512e-39
-0.38138571 -1.5987381 4.0450001 8.0221072e-39
-0.37368098 -1.5987381 4.0450001 7.9306388e-39
-0.36597618 -1.5987381 4.0450001 7.2881589e-39
-0.35827142 -1.5987381 4.0450001 6.7371361e-39
-0.35056666 -1.5987381 4.0450001 7.5636458e-39
-0.34286192 -1.5987381 4.0450001 8.389452e-39
-0.33126289 -1.5801619 3.9980001 9.0319473e-39
-0.32745239 -1.5987381 4.0450001 9.7666243e-39
-0.23658952 -1.1829476 2.993 9.3121047e-39
-0.23088856 -1.1829476 2.993 8.8482665e-39
-0.22518763 -1.1829476 2.993 8.6653158e-39
-0.21948667 -1.1829476 2.993 8.4816518e-39
-0.21378572 -1.1829476 2.993 8.482019e-39
-0.20627716 -1.1726714 2.9670002 8.4812959e-39
-0.20062572 -1.1726714 2.9670002 8.5724083e-39
-0.1949743 -1.1726714 2.9670002 8.7560863e-39
-0.18932287 -1.1726714 2.9670002 8.8482862e-39
-0.18367143 -1.1726714 2.9670002 9.0319515e-39
-0.17802002 -1.1726714 2.9670002 8.940109e-39
-0.17236859 -1.1726714 2.9670002 8.9419041e-39
-0.16671716 -1.1726714 2.9670002 8.7578758e-39
-0.16106573 -1.1726714 2.9670002 8.5738433e-39
-0.1554143 -1.1726714 2.9670002 8.6663934e-39
-0.14976287 -1.1726714 2.9670002 8.8507791e-39
-0.14411144 -1.1726714 2.9670002 8.5752712e-39
-0.13846001 -1.1726714 2.9670002 8.3912429e-39
-0.13280858 -1.1726714 2.9670002 8.6667493e-39
-0.12715715 -1.1726714 2.9670002 8.9422572e-39
-0.12150572 -1.1726714 2.9670002 9.1255709e-39
-0.11585429 -1.1726714 2.9670002 9.3099565e-39
-0.11020287 -1.1726714 2.9670002 9.1262828e-39
-0.10455143 -1.1726714 2.9670002 9.0340899e-39
-0.098900005 -1.1726714 2.9670002 8.5749138e-39
-0.093248583 -1.1726714 2.9670002 8.2079292e-39
-0.086859047 -1.1627905 2.9420002 8.5752712e-39
-0.081945717 -1.1726714 2.9670002 8.9422558e-39
-0.07565143 -1.1627905 2.9420002 8.9422558e-39
-0.070642859 -1.1726714 2.9670002 8.9418957e-39
-0.064991429 -1.1726714 2.9670002 9.125208e-39
-0.059340008 -1.1726714 2.9670002 9.3085272e-39
-0.053688575 -1.1726714 2.9670002 8.7571625e-39
-0.048037145 -1.1726714 2.9670002 8.2064985e-39
-0.04238572 -1.1726714 2.9670002 8.9415314e-39
-0.036734287 -1.1726714 2.9670002 9.6754993e-39
-0.031082857 -1.1726714 2.9670002 9.3996368e-39
-0.025654286 -1.1829476 2.993 9.2177567e-39
-0.019780001 -1.1726714 2.9670002 9.0340843e-39
-0.014128572 -1.1726714 2.9670002 8.9422516e-39
-0.0084771439 -1.1726714 2.9670002 8.9422558e-39
-0.0028257144 -1.1726714 2.9670002 8.9422628e-39
0.0028257144 -1.1726714 2.9670002 9.2181365e-39
0.0084771439 -1.1726714 2.9670002 9.4943534e-39
0.014009525 -1.1627905 2.9420002 8.7596624e-39
0.019613335 -1.1627905 2.9420002 8.0228331e-39
0.025217144 -1.1627905 2.9420002 8.6660473e-39
0.030820955 -1.1627905 2.9420002 9.403234e-39
0.036424764 -1.1627905 2.9420002 9.1273603e-39
0.041671429 -1.1529095 2.9170001 8.8514923e-39
0.047632385 -1.1627905 2.9420002 8.759654e-39
0.053236194 -1.1627905 2.9420002 8.7596582e-39
0.058339998 -1.1529095 2.9170001 8.8518567e-39
0.064443812 -1.1627905 2.9420002 8.9436894e-39
0.069452383 -1.1529095 2.9170001 8.8525699e-39
0.075008571 -1.1529095 2.9170001 8.7607316e-39
0.08056476 -1.1529095 2.9170001 8.6688919e-39
0.086120956 -1.1529095 2.9170001 8.5774222e-39
0.091677144 -1.1529095 2.9170001 8.5781466e-39
0.096433334 -1.1434239 2.8930001 8.669629e-39
0.10194381 -1.1434239 2.8930001 8.76111e-39
0.10745429 -1.1434239 2.8930001 8.9444082e-39
0.11296476 -1.1434239 2.8930001 9.0365898e-39
0.11847524 -1.1434239 2.8930001 9.1280792e-39
0.12398572 -1.1434239 2.8930001 8.9419097e-39
0.1294962 -1.1434239 2.8930001 8.8500714e-39
0.13500667 -1.1434239 2.8930001 9.0344585e-39
0.14051715 -1.1434239 2.8930001 9.2181309e-39
0.14602762 -1.1434239 2.8930001 9.1266555e-39
0.1515381 -1.1434239 2.8930001 9.0351731e-39
0.15704857 -1.1434239 2.8930001 8.9440509e-39
0.16255906 -1.1434239 2.8930001 8.9440495e-39
0.16667525 -1.1339382 2.8690002 8.8522126e-39
0.17214 -1.1339382 2.8690002 8.8536573e-39
0.17760478 -1.1339382 2.8690002 8.6707136e-39
0.18306953 -1.1339382 2.8690002 8.4856049e-39
0.18853429 -1.1339382 2.8690002 8.7607512e-39
0.19399907 -1.1339382 2.8690002 9.0358976e-39
0.19946381 -1.1339382 2.8690002 8.7603897e-39
0.20492859 -1.1339382 2.8690002 8.5763516e-39
0.21215335 -1.1434239 2.8930001 8.8518497e-39
0.21766382 -1.1434239 2.8930001 9.1273716e-39
0.22317429 -1.1434239 2.8930001 9.2192211e-39
0.22868477 -1.1434239 2.8930001 9.4028823e-39
0.23419525 -1.1434239 2.8930001 9.496503e-39
0.23771715 -1.1339382 2.8690002 9.6794635e-39
0.24318191 -1.1339382 2.8690002 9.4954408e-39
0.24864668 -1.1339382 2.8690002 9.4043256e-39
0.2519857 -1.1244525 2.845 8.763991e-39
0.25740474 -1.1244525 2.845 8.2129809e-39
0.26504096 -1.1339382 2.8690002 8.4884916e-39
0.27050573 -1.1339382 2.8690002 8.7643624e-39
0.27597049 -1.1339382 2.8690002 8.9483991e-39
0.28143525 -1.1339382 2.8690002 9.1353001e-39
0.28690001 -1.1339382 2.8690002 9.3222011e-39
0.29236478 -1.1339382 2.8690002 9.595558e-39
0.29782954 -1.1339382 2.8690002 1.0052586e-38
0.30075714 -1.1244525 2.845 1.0604322e-38
0.30617622 -1.1244525 2.845 1.1064583e-38
0.31159526 -1.1244525 2.845 1.1524122e-38
0.31701428 -1.1244525 2.845 1.2082672e-38
0.32243332 -1.1244525 2.845 1.263225e-38
0.32785237 -1.1244525 2.845 1.2814488e-38
0.33057716 -1.1153619 2.822 1.2999238e-38
0.33869046 -1.1244525 2.845 1.2541497e-38
0.34410954 -1.1244525 2.845 1.21738e-38
0.34670284 -1.1153619 2.822 1.2908128e-38
0.35207811 -1.1153619 2.822 1.3642811e-38
0.35745332 -1.1153619 2.822 1.336766e-38
0.36578572 -1.1244525 2.845 1.3184342e-38
0.37120476 -1.1244525 2.845 1.3277608e-38
0.37662381 -1.1244525 2.845 1.3368725e-38
0.38204286 -1.1244525 2.845 1.3552753e-38
0.3874619 -1.1244525 2.845 1.3736783e-38
0.39288095 -1.1244525 2.845 1.3924402e-38
0.39829999 -1.1244525 2.845 1.4103052e-38
0.40371904 -1.1244525 2.845 1.4102337e-38
0.40913808 -1.1244525 2.845 1.4102333e-38
0.41455713 -1.1244525 2.845 1.3918659e-38
0.4199762 -1.1244525 2.845 1.3733557e-38
0.42898384 -1.1339382 2.8690002 1.3732127e-38
0.4308143 -1.1244525 2.845 1.3736429e-38
0.43623334 -1.1244525 2.845 1.4104845e-38
0.44165239 -1.1244525 2.845 1.4564746e-38
0.44707143 -1.1244525 2.845 1.4198486e-38
0.45249045 -1.1244525 2.845 1.382791e-38
0.45790952 -1.1244525 2.845 1.3827904e-38
0.46332857 -1.1244525 2.845 1.3827544e-38
0.46874762 -1.1244525 2.845 1.3919378e-38
0.47416666 -1.1244525 2.845 1.4102689e-38
0.47958571 -1.1244525 2.845 1.4010852e-38
0.48909622 -1.1339382 2.8690002 1.4010853e-38
0.49456102 -1.1339382 2.8690002 1.3827542e-38
0.50002575 -1.1339382 2.8690002 1.3734989e-38
0.50549048 -1.1339382 2.8690002 1.3734272e-38
0.51095527 -1.1339382 2.8690002 1.3826109e-38
0.51642001 -1.1339382 2.8690002 1.4009783e-38
0.5218848 -1.1339382 2.8690002 1.4193811e-38
0.52734953 -1.1339382 2.8690002 1.4010499e-38
0.53281432 -1.1339382 2.8690002 1.3826831e-38
0.53827912 -1.1339382 2.8690002 1.3826835e-38
0.54374385 -1.1339382 2.8690002 1.382468e-38
0.54920864 -1.1339382 2.8690002 1.3641364e-38
0.55467337 -1.1339382 2.8690002 1.3549891e-38
0.56013811 -1.1339382 2.8690002 1.3550253e-38
0.5656029 -1.1339382 2.8690002 1.3644233e-38
0.57106763 -1.1339382 2.8690002 1.3642791e-38
0.57653242 -1.1339382 2.8690002 1.3734618e-38
0.58199716 -1.1339382 2.8690002 1.3826805e-38
0.58746195 -1.1339382 2.8690002 1.3919731e-38
0.59292674 -1.1339382 2.8690002 1.3736434e-38
0.59839147 -1.1339382 2.8690002 1.3644236e-38
0.60385627 -1.1339382 2.8690002 1.4011574e-38
0.61441815 -1.1434239 2.8930001 1.4469315e-38
0.61478573 -1.1339382 2.8690002 1.4008702e-38
0.62543905 -1.1434239 2.8930001 1.3550598e-38
0.6309495 -1.1434239 2.8930001 1.3092494e-38
0.63646001 -1.1434239 2.8930001 1.2724789e-38
0.63664478 -1.1339382 2.8690002 1.2999217e-38
0.64748096 -1.1434239 2.8930001 1.3275087e-38
0.64757437 -1.1339382 2.8690002 1.3459123e-38
0.65850192 -1.1434239 2.8930001 1.3642438e-38
0.66401237 -1.1434239 2.8930001 1.3640648e-38
0.66952288 -1.1434239 2.8930001 1.3642079e-38
0.67503333 -1.1434239 2.8930001 1.3091422e-38
0.68054384 -1.1434239 2.8930001 1.2632245e-38
0.68605435 -1.1434239 2.8930001 1.2815916e-38
0.69156474 -1.1434239 2.8930001 1.3091425e-38
0.69707525 -1.1434239 2.8930001 1.299744e-38
0.70258576 -1.1434239 2.8930001 1.2997794e-38
0.70809621 -1.1434239 2.8930001 1.3003889e-38
0.71952665 -1.1529095 2.9170001 1.3000657e-38
0.72508287 -1.1529095 2.9170001 1.2724073e-38
0.72462761 -1.1434239 2.8930001 1.2541118e-38
0.73013812 -1.1434239 2.8930001 1.272443e-38
0.73564857 -1.1434239 2.8930001 1.299921e-38
0.74115908 -1.1434239 2.8930001 1.2905931e-38
0.74666959 -1.1434239 2.8930001 1.2905936e-38
0.75218004 -1.1434239 2.8930001 1.2541829e-38
0.75769049 -1.1434239 2.8930001 1.2170187e-38
0.76320094 -1.1434239 2.8930001 1.2353147e-38
0.76871145 -1.1434239 2.8930001 1.2629016e-38
0.77422196 -1.1434239 2.8930001 1.2629738e-38
0.78620094 -1.1529095 2.9170001 1.2629371e-38
0.79175717 -1.1529095 2.9170001 1.2540039e-38
0.79731333 -1.1529095 2.9170001 1.2447838e-38
0.8028695 -1.1529095 2.9170001 1.2447472e-38
0.80842572 -1.1529095 2.9170001 1.2538597e-38
0.81398195 -1.1529095 2.9170001 1.2813753e-38
0.81953812 -1.1529095 2.9170001 1.3180735e-38
0.82509428 -1.1529095 2.9170001 1.2720839e-38
0.83065051 -1.1529095 2.9170001 1.2353861e-38
0.84337336 -1.1627905 2.9420002 1.226239e-38
0.84897715 -1.1627905 2.9420002 1.217055e-38
0.854581 -1.1627905 2.9420002 1.1984724e-38
0.86018479 -1.1627905 2.9420002 1.1799978e-38
0.86578864 -1.1627905 2.9420002 1.2081586e-38
0.87139243 -1.1627905 2.9420002 1.2443896e-38
0.87699622 -1.1627905 2.9420002 1.2351691e-38
0.88260001 -1.1627905 2.9420002 1.2260934e-38
0.88820386 -1.1627905 2.9420002 1.2076909e-38
0.89380765 -1.1627905 2.9420002 1.198472e-38
0.89941144 -1.1627905 2.9420002 1.1986879e-38
0.90501529 -1.1627905 2.9420002 1.1987228e-38
0.90288097 -1.1529095 2.9170001 1.1987577e-38
0.90843713 -1.1529095 2.9170001 1.1986142e-38
0.9064734 -1.1434239 2.8930001 1.1433694e-38
0.88960195 -1.1153619 2.822 1.0881961e-38
0.88070577 -1.0975763 2.7770002 1.0881598e-38
0.87195712 -1.0801858 2.733 1.0880516e-38
0.87716287 -1.0801858 2.733 1.0692892e-38
0.87526578 -1.0714905 2.7110002 1.0601058e-38
0.88042957 -1.0714905 2.7110002 1.0417389e-38
0.88559335 -1.0714905 2.7110002 1.032555e-38
0.8907572 -1.0714905 2.7110002 9.9585658e-39
0.89592099 -1.0714905 2.7110002 9.6812628e-39
0.90108484 -1.0714905 2.7110002 9.1298869e-39
0.90624863 -1.0714905 2.7110002 8.5785222e-39
0.90435237 -1.0631905 2.6900001 9.4043326e-39
0.90947622 -1.0631905 2.6900001 1.0324834e-38
0.91460001 -1.0631905 2.6900001 1.0692172e-38
0.91972381 -1.0631905 2.6900001 1.1059871e-38
0.92484766 -1.0631905 2.6900001 1.0785081e-38
0.92997146 -1.0631905 2.6900001 1.0511011e-38
0.93509525 -1.0631905 2.6900001 1.1066331e-38
0.93287909 -1.0548905 2.6690001 1.170416e-38
0.93093437 -1.0469857 2.6490002 1.1244628e-38
0.93598002 -1.0469857 2.6490002 1.0877286e-38
0.94102579 -1.0469857 2.6490002 1.0693976e-38
0.9389286 -1.039081 2.6290002 1.0508861e-38
0.9367553 -1.0311763 2.6090002 9.9560462e-39
0.94172484 -1.0311763 2.6090002 9.4968659e-39
0.94669431 -1.0311763 2.6090002 9.4972219e-39
0.95166385 -1.0311763 2.6090002 9.4968659e-39
0.95663339 -1.0311763 2.6090002 8.8515105e-39
0.96160293 -1.0311763 2.6090002 8.3005004e-39
0.95916295 -1.0232714 2.5890002 9.1263052e-39
0.95701909 -1.015762 2.5700002 1.0047883e-38
0.96191436 -1.015762 2.5700002 1.0507415e-38
0.96680957 -1.015762 2.5700002 1.1060942e-38
0.96452099 -1.0082524 2.5510001 1.1338964e-38
0.96938002 -1.0082524 2.5510001 1.1705237e-38
0.97423911 -1.0082524 2.5510001 1.1612689e-38
0.97180569 -1.0007429 2.5320001 1.152121e-38
0.96968573 -0.99362862 2.5140002 1.1619857e-38
0.97447431 -0.99362862 2.5140002 1.1799941e-38
0.97225142 -0.98651427 2.4960001 1.1889624e-38
0.96996003 -0.9794001 2.4780002 1.2075439e-38
0.97468007 -0.9794001 2.4780002 1.2166548e-38
0.9794001 -0.9794001 2.4780002 1.2259108e-38
0.97697151 -0.97228575 2.46 1.1983609e-38
0.98165715 -0.97228575 2.46 1.1799945e-38
0.98634291 -0.97228575 2.46 1.1983624e-38
0.99102855 -0.97228575 2.46 1.225948e-38
0.99571425 -0.97228575 2.46 1.1984322e-38
1.0004001 -0.97228575 2.46 1.1800665e-38
0.99813998 -0.96556669 2.4430001 1.2076186e-38
1.0027933 -0.96556669 2.4430001 1.2351324e-38
1.0004362 -0.95884764 2.4260001 1.2350956e-38
0.99801433 -0.95212859 2.4090002 1.2442797e-38
1.0026029 -0.95212859 2.4090002 1.244316e-38
1.0071914 -0.95212859 2.4090002 1.2442802e-38
1.0046401 -0.94540954 2.3920002 1.1891789e-38
1.0091963 -0.94540954 2.3920002 1.1340777e-38
1.0069715 -0.93908572 2.3760002 1.1524451e-38
1.0114971 -0.93908572 2.3760002 1.1708838e-38
1.0160229 -0.93908572 2.3760002 1.1985061e-38
1.0205486 -0.93908572 2.3760002 1.2353114e-38
1.01774 -0.93236679 2.3590002 1.2353826e-38
1.0222334 -0.93236679 2.3590002 1.2353483e-38
1.0267267 -0.93236679 2.3590002 1.2444618e-38
1.0312201 -0.93236679 2.3590002 1.2627564e-38
1.0286885 -0.92604291 2.3430002 1.2535362e-38
1.0260963 -0.9197191 2.3270001 1.2536799e-38
1.0305287 -0.9197191 2.3270001 1.2631865e-38
1.034961 -0.9197191 2.3270001 1.2812663e-38
1.0326933 -0.91379052 2.312 1.2720825e-38
1.0370972 -0.91379052 2.312 1.2720473e-38
1.0347439 -0.90786195 2.2970002 1.2812316e-38
1.0391191 -0.90786195 2.2970002 1.2904144e-38
1.0362258 -0.90153813 2.2810001 1.271939e-38
1.0337276 -0.89560956 2.266 1.2536439e-38
1.0380439 -0.89560956 2.266 1.2813025e-38
1.0423601 -0.89560956 2.266 1.3087811e-38
1.0466762 -0.89560956 2.266 1.2908083e-38
1.0509924 -0.89560956 2.266 1.2814818e-38
1.0553086 -0.89560956 2.266 1.3182523e-38
1.0530782 -0.89007622 2.2520001 1.3641691e-38
1.0573677 -0.89007622 2.2520001 1.3273262e-38
1.0545857 -0.88414758 2.237 1.2905568e-38
1.05222 -0.87861431 2.223 1.299741e-38
1.0493258 -0.87268579 2.2080002 1.318108e-38
1.0535315 -0.87268579 2.2080002 1.2997768e-38
1.0577372 -0.87268579 2.2080002 1.2814814e-38
1.0619429 -0.87268579 2.2080002 1.309104e-38
1.0593886 -0.86715239 2.194 1.3365467e-38
1.0635676 -0.86715239 2.194 1.2997406e-38
1.0677466 -0.86715239 2.194 1.263043e-38
1.0719256 -0.86715239 2.194 1.3090333e-38
1.0697285 -0.86201429 2.181 1.3553102e-38
1.0738828 -0.86201429 2.181 1.3644226e-38
1.0711172 -0.85648096 2.1670001 1.3735697e-38
1.0752448 -0.85648096 2.1670001 1.3550944e-38
1.0793724 -0.85648096 2.1670001 1.345875e-38
1.0835 -0.85648096 2.1670001 1.2995985e-38
1.0806011 -0.85094768 2.1530001 1.2629355e-38
1.0847019 -0.85094768 2.1530001 1.3182158e-38
1.0888029 -0.85094768 2.1530001 1.3827163e-38
1.0929039 -0.85094768 2.1530001 1.4196303e-38
1.0903809 -0.84580958 2.1400001 1.4562574e-38
1.0944571 -0.84580958 2.1400001 1.4193444e-38
1.0918599 -0.84067142 2.1270001 1.3917942e-38
1.0892134 -0.83553338 2.1140001 1.3918663e-38
1.0932401 -0.83553338 2.1140001 1.4010133e-38
1.0905191 -0.83039528 2.1010001 1.3275085e-38
1.094521 -0.83039528 2.1010001 1.2540401e-38
1.0985229 -0.83039528 2.1010001 1.3183608e-38
1.1025248 -0.83039528 2.1010001 1.3918648e-38
1.1065267 -0.83039528 2.1010001 1.4286346e-38
1.1105286 -0.83039528 2.1010001 1.4745885e-38
1.1145306 -0.83039528 2.1010001 1.4287786e-38
1.1185323 -0.83039528 2.1010001 1.3827534e-38
1.1225343 -0.83039528 2.1010001 1.3184328e-38
-1.6475104 -1.1099867 2.822 6.0852871e-39
-1.6421353 -1.1099867 2.822 6.0845669e-39
-1.6501 -1.1190333 2.845 6.176038e-39
-1.6585554 -1.1284734 2.8690002 5.9001672e-39
-1.6669191 -1.1379133 2.8930001 5.716492e-39
-1.6751914 -1.1473534 2.9170001 5.3473521e-39
-1.6839448 -1.1571866 2.9420002 4.9792927e-39
-1.692603 -1.1670201 2.9670002 5.3477109e-39
-1.6869516 -1.1670201 2.9670002 5.7161248e-39
-1.6960332 -1.1772467 2.993 5.623209e-39
-1.7050163 -1.1874734 3.0190001 5.6232146e-39
-1.72966 -1.2087134 3.0730002 5.2558796e-39
-1.7395133 -1.2197267 3.1010001 4.8885404e-39
-1.7336066 -1.2197267 3.1010001 5.2533741e-39
-1.7433001 -1.2307401 3.1290002 5.7114697e-39
-1.7528867 -1.2417533 3.1570001 5.9873308e-39
-1.76292 -1.25316 3.1860001 6.2638994e-39
-1.7568516 -1.25316 3.1860001 5.6203195e-39
-1.7507828 -1.25316 3.1860001 5.0685862e-39
-1.7775714 -1.27676 3.2460001 4.7930783e-39
-1.7713885 -1.27676 3.2460001 4.5147006e-39
-1.7994658 -1.30154 3.3090003 4.3328233e-39
-1.8105038 -1.3141266 3.3410001 4.1487977e-39
-1.8214201 -1.3267134 3.3730001 3.7811012e-39
-1.8327525 -1.3396934 3.4060001 3.5055863e-39
-1.8262649 -1.3396934 3.4060001 3.8736388e-39
-1.837943 -1.3530667 3.4400001 4.1520291e-39
-1.8500239 -1.3668333 3.4750001 3.9655023e-39
-1.8434048 -1.3668333 3.4750001 3.7814403e-39
-1.8552859 -1.3806001 3.5100002 3.7803333e-39
-1.86756 -1.39476 3.5460002 3.8718269e-39
-1.8802221 -1.4093133 3.5830002 4.0540812e-39
-1.8733972 -1.4093133 3.5830002 4.3295905e-39
-1.8863686 -1.4242601 3.6210003 3.7785803e-39
-1.8991952 -1.4392067 3.6590002 3.3201091e-39
-1.9123944 -1.4545467 3.6980002 3.0442326e-39
-1.9053506 -1.4545467 3.6980002 2.8605841e-39
-1.9614466 -1.5029267 3.8210001 2.6769369e-39
-1.97616 -1.51984 3.8640001 2.5822217e-39
-1.9687999 -1.51984 3.8640001 2.2141539e-39
-1.96144 -1.51984 3.8640001 1.7546022e-39
-1.9540799 -1.51984 3.8640001 1.9364656e-39
-1.94672 -1.51984 3.8640001 2.1190702e-39
-1.93936 -1.51984 3.8640001 2.0268871e-39
-1.932 -1.51984 3.8640001 1.9346887e-39
-1.9246401 -1.51984 3.8640001 1.8446441e-39
-2.4695401 -1.9576199 4.9770002 1.7542449e-39
-2.4249659 -1.9296935 4.9060001 1.7535288e-39
-2.3821392 -1.9029467 4.8380003 1.7524541e-39
-2.3729239 -1.9029467 4.8380003 2.0279633e-39
-2.3637085 -1.9029467 4.8380003 2.3967332e-39
-2.3875866 -1.9296935 4.9060001 2.2123392e-39
-2.3452783 -1.9029467 4.8380003 2.0279479e-39
-2.3360631 -1.9029467 4.8380003 2.0275878e-39
-2.3595524 -1.9296935 4.9060001 2.027215e-39
-2.3502076 -1.9296935 4.9060001 2.5785727e-39
-2.3408628 -1.9296935 4.9060001 3.13032e-39
-2.3652601 -1.9576199 4.9770002 2.3952941e-39
-2.3221734 -1.9296935 4.9060001 1.7520897e-39
-2.3463001 -1.9576199 4.9770002 2.3953011e-39
-2.3368201 -1.9576199 4.9770002 3.1310627e-39
-2.3273399 -1.9576199 4.9770002 2.3967389e-39
-2.3178601 -1.9576199 4.9770002 1.7538848e-39
-2.3083801 -1.9576199 4.9770002 2.303816e-39
-2.2989001 -1.9576199 4.9770002 2.8537555e-39
-2.2894201 -1.9576199 4.9770002 3.1285488e-39
-2.2799399 -1.9576199 4.9770002 3.4958907e-39
-2.2704601 -1.9576199 4.9770002 3.1299851e-39
-2.2609801 -1.9576199 4.9770002 2.7640654e-39
-2.2515001 -1.9576199 4.9770002 2.1204883e-39
-2.2420201 -1.9576199 4.9770002 1.4769321e-39
-2.2325399 -1.9576199 4.9770002 2.4864164e-39
-2.2230601 -1.9576199 4.9770002 3.4962579e-39
-2.2135799 -1.9576199 4.9770002 2.7619425e-39
-2.1726573 -1.9296935 4.9060001 2.1197834e-39
-2.1633124 -1.9296935 4.9060001 2.3059375e-39
-2.1539676 -1.9296935 4.9060001 2.5814594e-39
-2.1148973 -1.9029467 4.8380003 2.9480994e-39
-2.1056819 -1.9029467 4.8380003 3.3147267e-39
-2.0964668 -1.9029467 4.8380003 2.6718824e-39
-2.0872514 -1.9029467 4.8380003 2.120854e-39
-2.0492582 -1.8765935 4.7710004 2.6711341e-39
-2.0688212 -1.9029467 4.8380003 3.2210835e-39
-2.0596058 -1.9029467 4.8380003 3.7724692e-39
-2.0792096 -1.9296935 4.9060001 4.416045e-39
-2.069865 -1.9296935 4.9060001 4.0483555e-39
-2.0605202 -1.9296935 4.9060001 3.6810121e-39
-2.0511754 -1.9296935 4.9060001 3.3140288e-39
-2.0418305 -1.9296935 4.9060001 2.9470484e-39
-2.0619001 -1.9576199 4.9770002 2.8555744e-39
-2.0524199 -1.9576199 4.9770002 2.7640949e-39
-2.0429401 -1.9576199 4.9770002 2.856645e-39
-2.0334601 -1.9576199 4.9770002 2.9502574e-39
-2.0239801 -1.9576199 4.9770002 2.674018e-39
-1.9857619 -1.9296935 4.9060001 2.3974437e-39
-1.949023 -1.9029467 4.8380003 2.7647955e-39
-1.9398077 -1.9029467 4.8380003 3.223973e-39
-1.9305924 -1.9029467 4.8380003 3.591315e-39
-1.8947687 -1.8765935 4.7710004 3.9589933e-39
-1.8856812 -1.8765935 4.7710004 3.0395411e-39
-1.8765935 -1.8765935 4.7710004 2.2123224e-39
-1.8675058 -1.8765935 4.7710004 2.7665822e-39
-1.8584182 -1.8765935 4.7710004 3.4087272e-39
-1.8493305 -1.8765935 4.7710004 3.9576018e-39
-1.840243 -1.8765935 4.7710004 4.6008048e-39
-1.8062078 -1.8510268 4.7060003 4.0505065e-39
-1.7972438 -1.8510268 4.7060003 3.5005739e-39
-1.78828 -1.8510268 4.7060003 3.4995019e-39
-1.7793163 -1.8510268 4.7060003 3.4987648e-39
-1.7703525 -1.8510268 4.7060003 3.4994641e-39
-1.7613887 -1.8510268 4.7060003 3.5923842e-39
-1.7524248 -1.8510268 4.7060003 3.592394e-39
-1.7434611 -1.8510268 4.7060003 3.684591e-39
-1.7344973 -1.8510268 4.7060003 3.5023591e-39
-1.7255335 -1.8510268 4.7060003 3.3201245e-39
-1.7165695 -1.8510268 4.7060003 3.4112439e-39
-1.7076057 -1.8510268 4.7060003 3.5041584e-39
-1.698642 -1.8510268 4.7060003 3.868276e-39
-1.6670581 -1.8262467 4.6430001 4.3274451e-39
-1.6582142 -1.8262467 4.6430001 3.7785775e-39
-1.6493704 -1.8262467 4.6430001 3.2293652e-39
-1.6405268 -1.8262467 4.6430001 3.2290135e-39
-1.6316829 -1.8262467 4.6430001 3.2290135e-39
-1.6228391 -1.8262467 4.6430001 3.1368192e-39
-1.6139953 -1.8262467 4.6430001 3.1364717e-39
-1.6051514 -1.8262467 4.6430001 2.9528119e-39
-1.5963076 -1.8262467 4.6430001 2.8609568e-39
-1.5874639 -1.8262467 4.6430001 3.5966988e-39
-1.5575401 -1.8018601 4.5810003 4.3292359e-39
-1.5488144 -1.8018601 4.5810003 4.1444958e-39
-1.5199172 -1.7782602 4.5210004 4.0519428e-39
-1.5113058 -1.7782602 4.5210004 4.0548141e-39
-1.5026944 -1.7782602 4.5210004 4.1487991e-39
-1.4940829 -1.7782602 4.5210004 3.9640491e-39
-1.4854715 -1.7782602 4.5210004 3.7803641e-39
-1.47686 -1.7782602 4.5210004 3.4133669e-39
-1.4682487 -1.7782602 4.5210004 3.1382345e-39
-1.4596373 -1.7782602 4.5210004 3.5956352e-39
-1.4510258 -1.7782602 4.5210004 4.0533777e-39
-1.4424144 -1.7782602 4.5210004 4.3306793e-39
-1.433803 -1.7782602 4.5210004 4.6072493e-39
-1.4251915 -1.7782602 4.5210004 4.055865e-39
-1.4165802 -1.7782602 4.5210004 3.5967016e-39
-1.4079686 -1.7782602 4.5210004 3.8718633e-39
-1.3993572 -1.7782602 4.5210004 4.2366956e-39
-1.3907458 -1.7782602 4.5210004 4.1448615e-39
-1.3821343 -1.7782602 4.5210004 4.1448601e-39
-1.3735229 -1.7782602 4.5210004 4.6072662e-39
-1.347401 -1.7554468 4.4630003 4.9767549e-39
-1.3389001 -1.7554468 4.4630003 4.6079738e-39
-1.3303992 -1.7554468 4.4630003 4.1484418e-39
-1.3218981 -1.7554468 4.4630003 3.6896287e-39
-1.3133973 -1.7554468 4.4630003 3.2304526e-39
-1.3048962 -1.7554468 4.4630003 3.8718689e-39
-1.2963953 -1.7554468 4.4630003 4.5129307e-39
-1.2878944 -1.7554468 4.4630003 4.9728327e-39
-1.2960202 -1.7782602 4.5210004 5.4330794e-39
-1.2708925 -1.7554468 4.4630003 4.9738949e-39
-1.2623916 -1.7554468 4.4630003 4.610136e-39
-1.2538905 -1.7554468 4.4630003 4.5190138e-39
-1.2453896 -1.7554468 4.4630003 4.4282517e-39
-1.2368886 -1.7554468 4.4630003 3.9687141e-39
-1.2283877 -1.7554468 4.4630003 3.4173508e-39
-1.2198868 -1.7554468 4.4630003 3.7832676e-39
-1.2113857 -1.7554468 4.4630003 4.1509655e-39
-1.2028848 -1.7554468 4.4630003 4.2427982e-39
-1.1791296 -1.7330267 4.4060001 4.4264594e-39
-1.1707371 -1.7330267 4.4060001 4.5179278e-39
-1.1623448 -1.7330267 4.4060001 4.6097717e-39
-1.1392858 -1.7110001 4.3500004 4.9767647e-39
-1.131 -1.7110001 4.3500004 5.3441067e-39
-1.1227144 -1.7110001 4.3500004 4.6087067e-39
-1.1144286 -1.7110001 4.3500004 3.8754605e-39
-1.1061429 -1.7110001 4.3500004 4.2428066e-39
-1.0978572 -1.7110001 4.3500004 4.6119437e-39
-1.0895715 -1.7110001 4.3500004 4.7030645e-39
-1.0812858 -1.7110001 4.3500004 4.7945469e-39
-1.0868133 -1.7330267 4.4060001 4.9775074e-39
-1.0647143 -1.7110001 4.3500004 5.2526524e-39
-1.0564287 -1.7110001 4.3500004 5.7118285e-39
-1.0616362 -1.7330267 4.4060001 6.1724409e-39
-1.0532438 -1.7330267 4.4060001 5.2540859e-39
-1.0448514 -1.7330267 4.4060001 4.4279266e-39
-1.0232857 -1.7110001 4.3500004 4.7037932e-39
-1.0150001 -1.7110001 4.3500004 4.9800172e-39
